1.000000000000000000e+00,1.000000000000000000e+00,1.000000000000000000e+00,1.000000000000000000e+00,1.000000000000000000e+00,1.000000000000000000e+00,1.000000000000000000e+00,1.000000000000000000e+00,1.000000000000000000e+00,1.000000000000000000e+00,1.000000000000000000e+00,1.000000000000000000e+00,1.000000000000000000e+00,1.000000000000000000e+00,1.000000000000000000e+00,1.000000000000000000e+00,1.000000000000000000e+00,1.000000000000000000e+00,1.000000000000000000e+00,1.000000000000000000e+00,1.000000000000000000e+00,1.000000000000000000e+00,1.000000000000000000e+00,1.000000000000000000e+00,1.000000000000000000e+00,1.000000000000000000e+00,1.000000000000000000e+00,1.000000000000000000e+00,1.000000000000000000e+00,1.000000000000000000e+00,1.000000000000000000e+00,1.000000000000000000e+00,1.000000000000000000e+00,1.000000000000000000e+00,1.000000000000000000e+00,1.000000000000000000e+00,1.000000000000000000e+00,1.000000000000000000e+00,1.000000000000000000e+00,1.000000000000000000e+00,1.000000000000000000e+00,1.000000000000000000e+00,1.000000000000000000e+00,1.000000000000000000e+00,2.548000000000000043e+01,4.407999999999999829e+01,5.571999999999999886e+01,1.156000000000000050e+01,3.720000000000000195e+00,1.051999999999999957e+01,4.064000000000000057e+01,2.567999999999999972e+01,1.324000000000000021e+01,3.720000000000000195e+00,1.000000000000000000e+00,1.000000000000000000e+00,2.359999999999999876e+00,1.188000000000000078e+01,2.139999999999999858e+01,1.000000000000000000e+00,1.000000000000000000e+00,1.000000000000000000e+00,1.000000000000000000e+00,1.000000000000000000e+00,1.000000000000000000e+00,1.000000000000000000e+00,1.000000000000000000e+00,1.000000000000000000e+00,1.000000000000000000e+00,1.000000000000000000e+00,1.000000000000000000e+00,4.271999999999999886e+01,1.077999999999999972e+02,2.535999999999999943e+01,1.000000000000000000e+00,1.000000000000000000e+00,1.000000000000000000e+00,1.000000000000000000e+00,1.000000000000000000e+00,1.000000000000000000e+00,1.000000000000000000e+00,1.000000000000000000e+00,1.000000000000000000e+00,1.000000000000000000e+00,1.000000000000000000e+00,1.000000000000000000e+00,1.000000000000000000e+00,1.000000000000000000e+00,1.000000000000000000e+00,1.000000000000000000e+00,1.000000000000000000e+00,1.000000000000000000e+00,1.000000000000000000e+00,1.000000000000000000e+00,1.000000000000000000e+00,1.000000000000000000e+00,3.720000000000000195e+00,3.203999999999999915e+01,3.720000000000000195e+00,1.000000000000000000e+00
1.000000000000000000e+00,1.000000000000000000e+00,1.000000000000000000e+00,1.000000000000000000e+00,1.000000000000000000e+00,1.000000000000000000e+00,1.000000000000000000e+00,1.000000000000000000e+00,1.000000000000000000e+00,1.000000000000000000e+00,1.000000000000000000e+00,1.000000000000000000e+00,1.000000000000000000e+00,1.000000000000000000e+00,1.000000000000000000e+00,1.000000000000000000e+00,1.000000000000000000e+00,1.000000000000000000e+00,1.000000000000000000e+00,1.000000000000000000e+00,1.000000000000000000e+00,1.000000000000000000e+00,1.000000000000000000e+00,1.000000000000000000e+00,1.000000000000000000e+00,1.000000000000000000e+00,1.000000000000000000e+00,1.000000000000000000e+00,1.000000000000000000e+00,1.000000000000000000e+00,1.000000000000000000e+00,1.000000000000000000e+00,1.000000000000000000e+00,1.000000000000000000e+00,1.000000000000000000e+00,1.000000000000000000e+00,1.000000000000000000e+00,1.000000000000000000e+00,1.000000000000000000e+00,1.000000000000000000e+00,1.000000000000000000e+00,1.000000000000000000e+00,1.000000000000000000e+00,1.000000000000000000e+00,1.000000000000000000e+00,1.000000000000000000e+00,1.324000000000000021e+01,7.799999999999999822e+00,9.160000000000000142e+00,2.003999999999999915e+01,4.439999999999999858e+01,9.200000000000000000e+01,7.712000000000000455e+01,3.520000000000000284e+01,3.332000000000000028e+01,1.596000000000000085e+01,2.923999999999999844e+01,2.787999999999999901e+01,3.707999999999999829e+01,1.564000000000000057e+01,1.000000000000000000e+00,1.000000000000000000e+00,1.000000000000000000e+00,1.000000000000000000e+00,1.000000000000000000e+00,1.000000000000000000e+00,1.000000000000000000e+00,1.000000000000000000e+00,1.000000000000000000e+00,1.000000000000000000e+00,1.732000000000000028e+01,4.815999999999999659e+01,8.856000000000000227e+01,5.264000000000000057e+01,1.000000000000000000e+00,1.000000000000000000e+00,1.000000000000000000e+00,1.000000000000000000e+00,1.000000000000000000e+00,1.000000000000000000e+00,1.000000000000000000e+00,1.000000000000000000e+00,1.000000000000000000e+00,1.000000000000000000e+00,1.000000000000000000e+00,1.000000000000000000e+00,1.000000000000000000e+00,1.000000000000000000e+00,1.000000000000000000e+00,1.000000000000000000e+00,1.000000000000000000e+00,1.000000000000000000e+00,1.000000000000000000e+00,1.000000000000000000e+00,1.000000000000000000e+00,1.000000000000000000e+00,1.000000000000000000e+00,1.000000000000000000e+00,1.000000000000000000e+00,1.000000000000000000e+00
1.000000000000000000e+00,1.000000000000000000e+00,1.000000000000000000e+00,1.000000000000000000e+00,1.000000000000000000e+00,1.000000000000000000e+00,1.000000000000000000e+00,1.000000000000000000e+00,1.000000000000000000e+00,1.000000000000000000e+00,1.000000000000000000e+00,1.000000000000000000e+00,1.000000000000000000e+00,1.000000000000000000e+00,1.000000000000000000e+00,1.000000000000000000e+00,1.000000000000000000e+00,1.000000000000000000e+00,1.000000000000000000e+00,1.000000000000000000e+00,1.000000000000000000e+00,1.000000000000000000e+00,1.000000000000000000e+00,1.000000000000000000e+00,1.000000000000000000e+00,1.000000000000000000e+00,1.000000000000000000e+00,1.000000000000000000e+00,1.000000000000000000e+00,1.000000000000000000e+00,1.000000000000000000e+00,1.000000000000000000e+00,1.000000000000000000e+00,1.000000000000000000e+00,1.000000000000000000e+00,1.000000000000000000e+00,1.000000000000000000e+00,1.000000000000000000e+00,1.000000000000000000e+00,1.000000000000000000e+00,1.000000000000000000e+00,1.000000000000000000e+00,1.000000000000000000e+00,1.000000000000000000e+00,3.720000000000000195e+00,2.819999999999999929e+01,3.875999999999999801e+01,3.688000000000000256e+01,4.628000000000000114e+01,4.064000000000000057e+01,6.584000000000000341e+01,2.210399999999999920e+02,2.389600000000000080e+02,8.931999999999999318e+01,8.168000000000000682e+01,6.132000000000000028e+01,8.135999999999999943e+01,6.564000000000000057e+01,6.100000000000000000e+01,1.867999999999999972e+01,1.000000000000000000e+00,1.000000000000000000e+00,1.000000000000000000e+00,1.000000000000000000e+00,1.000000000000000000e+00,1.000000000000000000e+00,1.000000000000000000e+00,1.000000000000000000e+00,1.000000000000000000e+00,1.000000000000000000e+00,2.003999999999999915e+01,5.567999999999999972e+01,8.856000000000000227e+01,1.322400000000000091e+02,2.655999999999999872e+01,1.000000000000000000e+00,1.000000000000000000e+00,1.000000000000000000e+00,1.000000000000000000e+00,1.000000000000000000e+00,1.000000000000000000e+00,1.000000000000000000e+00,1.000000000000000000e+00,1.000000000000000000e+00,1.000000000000000000e+00,1.000000000000000000e+00,1.000000000000000000e+00,1.000000000000000000e+00,1.000000000000000000e+00,1.000000000000000000e+00,1.000000000000000000e+00,1.000000000000000000e+00,1.000000000000000000e+00,1.000000000000000000e+00,1.000000000000000000e+00,1.000000000000000000e+00,1.000000000000000000e+00,1.000000000000000000e+00,1.000000000000000000e+00,1.000000000000000000e+00
1.000000000000000000e+00,1.000000000000000000e+00,1.000000000000000000e+00,1.000000000000000000e+00,1.000000000000000000e+00,1.000000000000000000e+00,1.000000000000000000e+00,1.000000000000000000e+00,1.000000000000000000e+00,1.000000000000000000e+00,1.000000000000000000e+00,1.000000000000000000e+00,1.000000000000000000e+00,1.000000000000000000e+00,1.000000000000000000e+00,1.000000000000000000e+00,1.000000000000000000e+00,1.000000000000000000e+00,1.000000000000000000e+00,1.000000000000000000e+00,1.000000000000000000e+00,1.000000000000000000e+00,1.000000000000000000e+00,1.000000000000000000e+00,1.000000000000000000e+00,1.000000000000000000e+00,1.000000000000000000e+00,1.000000000000000000e+00,1.000000000000000000e+00,1.000000000000000000e+00,1.000000000000000000e+00,1.000000000000000000e+00,1.000000000000000000e+00,1.000000000000000000e+00,1.000000000000000000e+00,1.000000000000000000e+00,1.000000000000000000e+00,1.000000000000000000e+00,1.000000000000000000e+00,1.000000000000000000e+00,1.000000000000000000e+00,1.000000000000000000e+00,1.000000000000000000e+00,1.000000000000000000e+00,2.276000000000000156e+01,7.143999999999999773e+01,7.023999999999999488e+01,5.756000000000000227e+01,7.823999999999999488e+01,5.567999999999999972e+01,1.662400000000000091e+02,3.148799999999999955e+02,3.467200000000000273e+02,2.540000000000000000e+02,1.146800000000000068e+02,1.077999999999999972e+02,1.305600000000000023e+02,6.132000000000000028e+01,4.220000000000000284e+01,1.000000000000000000e+00,1.000000000000000000e+00,1.000000000000000000e+00,1.000000000000000000e+00,1.000000000000000000e+00,1.000000000000000000e+00,1.000000000000000000e+00,1.000000000000000000e+00,1.000000000000000000e+00,1.000000000000000000e+00,1.000000000000000000e+00,4.052000000000000313e+01,6.884000000000000341e+01,1.112399999999999949e+02,2.001599999999999966e+02,8.535999999999999943e+01,1.000000000000000000e+00,1.000000000000000000e+00,1.000000000000000000e+00,1.000000000000000000e+00,1.000000000000000000e+00,1.000000000000000000e+00,1.000000000000000000e+00,1.000000000000000000e+00,1.000000000000000000e+00,1.000000000000000000e+00,1.000000000000000000e+00,1.000000000000000000e+00,1.000000000000000000e+00,1.000000000000000000e+00,1.000000000000000000e+00,1.000000000000000000e+00,1.000000000000000000e+00,1.000000000000000000e+00,1.000000000000000000e+00,1.000000000000000000e+00,1.000000000000000000e+00,1.000000000000000000e+00,1.000000000000000000e+00,1.000000000000000000e+00,1.000000000000000000e+00
1.000000000000000000e+00,1.000000000000000000e+00,1.000000000000000000e+00,1.000000000000000000e+00,1.000000000000000000e+00,1.000000000000000000e+00,1.000000000000000000e+00,1.000000000000000000e+00,1.000000000000000000e+00,1.000000000000000000e+00,1.000000000000000000e+00,1.000000000000000000e+00,1.000000000000000000e+00,1.000000000000000000e+00,1.000000000000000000e+00,1.000000000000000000e+00,1.000000000000000000e+00,1.000000000000000000e+00,1.000000000000000000e+00,1.000000000000000000e+00,1.000000000000000000e+00,1.000000000000000000e+00,1.000000000000000000e+00,1.000000000000000000e+00,1.000000000000000000e+00,1.000000000000000000e+00,1.000000000000000000e+00,1.000000000000000000e+00,1.000000000000000000e+00,1.000000000000000000e+00,1.000000000000000000e+00,1.000000000000000000e+00,1.000000000000000000e+00,1.000000000000000000e+00,1.000000000000000000e+00,1.000000000000000000e+00,1.000000000000000000e+00,1.000000000000000000e+00,1.000000000000000000e+00,1.000000000000000000e+00,1.000000000000000000e+00,1.000000000000000000e+00,1.000000000000000000e+00,7.799999999999999822e+00,2.819999999999999929e+01,9.448000000000000398e+01,1.285600000000000023e+02,1.183599999999999994e+02,1.147999999999999972e+02,1.845600000000000023e+02,3.213600000000000136e+02,4.111999999999999886e+02,3.500000000000000000e+02,2.015999999999999943e+02,1.473600000000000136e+02,1.486800000000000068e+02,1.478799999999999955e+02,2.819999999999999929e+01,3.720000000000000195e+00,1.000000000000000000e+00,1.000000000000000000e+00,1.000000000000000000e+00,1.000000000000000000e+00,1.000000000000000000e+00,1.000000000000000000e+00,1.000000000000000000e+00,1.000000000000000000e+00,1.000000000000000000e+00,1.000000000000000000e+00,1.000000000000000000e+00,3.300000000000000000e+01,8.887999999999999545e+01,1.164000000000000057e+02,1.834000000000000057e+02,1.553199999999999932e+02,1.000000000000000000e+00,1.000000000000000000e+00,1.000000000000000000e+00,1.000000000000000000e+00,1.000000000000000000e+00,1.000000000000000000e+00,1.000000000000000000e+00,1.000000000000000000e+00,1.000000000000000000e+00,1.000000000000000000e+00,1.000000000000000000e+00,1.000000000000000000e+00,1.000000000000000000e+00,1.000000000000000000e+00,1.000000000000000000e+00,1.000000000000000000e+00,1.000000000000000000e+00,1.000000000000000000e+00,1.000000000000000000e+00,1.000000000000000000e+00,1.000000000000000000e+00,1.000000000000000000e+00,1.000000000000000000e+00,1.000000000000000000e+00,1.000000000000000000e+00
1.000000000000000000e+00,1.000000000000000000e+00,1.000000000000000000e+00,1.000000000000000000e+00,1.000000000000000000e+00,1.000000000000000000e+00,1.000000000000000000e+00,1.000000000000000000e+00,1.000000000000000000e+00,1.000000000000000000e+00,1.000000000000000000e+00,1.000000000000000000e+00,1.000000000000000000e+00,1.000000000000000000e+00,1.000000000000000000e+00,1.000000000000000000e+00,1.000000000000000000e+00,1.000000000000000000e+00,1.000000000000000000e+00,1.000000000000000000e+00,1.000000000000000000e+00,1.000000000000000000e+00,1.000000000000000000e+00,1.000000000000000000e+00,1.000000000000000000e+00,1.000000000000000000e+00,1.000000000000000000e+00,1.000000000000000000e+00,1.000000000000000000e+00,1.000000000000000000e+00,1.000000000000000000e+00,1.000000000000000000e+00,1.000000000000000000e+00,1.000000000000000000e+00,5.080000000000000071e+00,1.103999999999999915e+01,1.648000000000000043e+01,3.547999999999999687e+01,5.599999999999999645e+00,1.000000000000000000e+00,1.000000000000000000e+00,1.000000000000000000e+00,1.000000000000000000e+00,3.144000000000000128e+01,5.911999999999999744e+01,7.228000000000000114e+01,9.043999999999999773e+01,1.678799999999999955e+02,1.919600000000000080e+02,2.992799999999999727e+02,2.990400000000000205e+02,3.672400000000000091e+02,2.770400000000000205e+02,1.592400000000000091e+02,1.353199999999999932e+02,1.164000000000000057e+02,9.731999999999999318e+01,2.548000000000000043e+01,3.471999999999999886e+01,2.092000000000000171e+01,1.000000000000000000e+00,1.000000000000000000e+00,1.000000000000000000e+00,1.000000000000000000e+00,1.000000000000000000e+00,1.000000000000000000e+00,1.000000000000000000e+00,1.000000000000000000e+00,1.000000000000000000e+00,1.000000000000000000e+00,3.500000000000000000e+01,8.840000000000000568e+01,1.405999999999999943e+02,2.029600000000000080e+02,4.668799999999999955e+02,1.000000000000000000e+00,1.000000000000000000e+00,1.000000000000000000e+00,1.000000000000000000e+00,1.000000000000000000e+00,1.000000000000000000e+00,1.000000000000000000e+00,1.000000000000000000e+00,1.000000000000000000e+00,1.000000000000000000e+00,1.000000000000000000e+00,1.000000000000000000e+00,1.000000000000000000e+00,1.000000000000000000e+00,1.000000000000000000e+00,1.000000000000000000e+00,1.000000000000000000e+00,1.000000000000000000e+00,1.000000000000000000e+00,1.000000000000000000e+00,1.000000000000000000e+00,1.000000000000000000e+00,1.000000000000000000e+00,1.000000000000000000e+00,1.000000000000000000e+00
1.000000000000000000e+00,1.000000000000000000e+00,1.000000000000000000e+00,1.000000000000000000e+00,1.000000000000000000e+00,1.000000000000000000e+00,1.000000000000000000e+00,1.000000000000000000e+00,1.000000000000000000e+00,1.000000000000000000e+00,1.000000000000000000e+00,1.000000000000000000e+00,1.000000000000000000e+00,1.000000000000000000e+00,1.000000000000000000e+00,1.000000000000000000e+00,1.000000000000000000e+00,1.000000000000000000e+00,1.000000000000000000e+00,1.000000000000000000e+00,1.000000000000000000e+00,1.000000000000000000e+00,1.000000000000000000e+00,1.000000000000000000e+00,1.000000000000000000e+00,1.000000000000000000e+00,1.000000000000000000e+00,1.000000000000000000e+00,1.000000000000000000e+00,1.000000000000000000e+00,1.000000000000000000e+00,1.000000000000000000e+00,3.720000000000000195e+00,9.160000000000000142e+00,2.055999999999999872e+01,9.215999999999999659e+01,1.005199999999999960e+02,1.603600000000000136e+02,8.979999999999999716e+01,2.359999999999999876e+00,1.000000000000000000e+00,1.000000000000000000e+00,1.919999999999999929e+01,4.424000000000000199e+01,1.804399999999999977e+02,2.098400000000000034e+02,1.440000000000000000e+02,1.232800000000000011e+02,1.689600000000000080e+02,2.604399999999999977e+02,2.729599999999999795e+02,2.766800000000000068e+02,1.636399999999999864e+02,1.543600000000000136e+02,1.549600000000000080e+02,8.228000000000000114e+01,3.603999999999999915e+01,9.160000000000000142e+00,1.427999999999999936e+01,1.427999999999999936e+01,1.000000000000000000e+00,1.000000000000000000e+00,1.000000000000000000e+00,1.000000000000000000e+00,1.000000000000000000e+00,1.000000000000000000e+00,1.000000000000000000e+00,1.000000000000000000e+00,1.000000000000000000e+00,1.000000000000000000e+00,2.819999999999999929e+01,7.212000000000000455e+01,1.335999999999999943e+02,2.088000000000000114e+02,1.595999999999999943e+02,1.051999999999999957e+01,4.964000000000000057e+01,6.440000000000000391e+00,1.000000000000000000e+00,1.000000000000000000e+00,1.000000000000000000e+00,1.000000000000000000e+00,1.000000000000000000e+00,1.000000000000000000e+00,1.000000000000000000e+00,1.000000000000000000e+00,1.000000000000000000e+00,1.000000000000000000e+00,1.000000000000000000e+00,1.000000000000000000e+00,1.000000000000000000e+00,1.000000000000000000e+00,1.000000000000000000e+00,1.000000000000000000e+00,1.000000000000000000e+00,1.000000000000000000e+00,1.000000000000000000e+00,1.000000000000000000e+00,1.000000000000000000e+00,1.000000000000000000e+00
1.000000000000000000e+00,1.000000000000000000e+00,1.000000000000000000e+00,1.000000000000000000e+00,1.000000000000000000e+00,1.000000000000000000e+00,1.000000000000000000e+00,1.000000000000000000e+00,1.000000000000000000e+00,1.000000000000000000e+00,1.000000000000000000e+00,1.000000000000000000e+00,1.000000000000000000e+00,1.000000000000000000e+00,1.000000000000000000e+00,1.000000000000000000e+00,1.000000000000000000e+00,1.000000000000000000e+00,1.000000000000000000e+00,1.000000000000000000e+00,1.000000000000000000e+00,1.000000000000000000e+00,1.000000000000000000e+00,1.000000000000000000e+00,1.000000000000000000e+00,1.000000000000000000e+00,1.000000000000000000e+00,1.000000000000000000e+00,1.000000000000000000e+00,1.000000000000000000e+00,1.000000000000000000e+00,1.000000000000000000e+00,1.648000000000000043e+01,1.002399999999999949e+02,1.620800000000000125e+02,2.363199999999999932e+02,1.783199999999999932e+02,2.620799999999999841e+02,1.961200000000000045e+02,7.884000000000000341e+01,5.080000000000000071e+00,1.000000000000000000e+00,3.720000000000000195e+00,5.884000000000000341e+01,1.713199999999999932e+02,2.354799999999999898e+02,2.324000000000000057e+02,1.546399999999999864e+02,1.440399999999999920e+02,1.937599999999999909e+02,2.011200000000000045e+02,1.690800000000000125e+02,1.043599999999999994e+02,7.620000000000000284e+01,7.040000000000000568e+01,4.115999999999999659e+01,1.732000000000000028e+01,1.000000000000000000e+00,1.000000000000000000e+00,1.000000000000000000e+00,1.000000000000000000e+00,1.000000000000000000e+00,1.000000000000000000e+00,1.000000000000000000e+00,1.000000000000000000e+00,1.000000000000000000e+00,1.000000000000000000e+00,1.000000000000000000e+00,1.000000000000000000e+00,1.000000000000000000e+00,2.819999999999999929e+01,6.695999999999999375e+01,1.215600000000000023e+02,1.940399999999999920e+02,1.901599999999999966e+02,4.064000000000000057e+01,5.160000000000000142e+01,1.022000000000000028e+02,8.320000000000000284e+00,2.359999999999999876e+00,1.000000000000000000e+00,1.000000000000000000e+00,1.000000000000000000e+00,1.000000000000000000e+00,1.000000000000000000e+00,1.000000000000000000e+00,1.000000000000000000e+00,1.000000000000000000e+00,1.000000000000000000e+00,1.000000000000000000e+00,1.000000000000000000e+00,1.000000000000000000e+00,1.000000000000000000e+00,1.000000000000000000e+00,1.000000000000000000e+00,1.000000000000000000e+00,1.000000000000000000e+00,1.000000000000000000e+00,1.000000000000000000e+00,1.000000000000000000e+00
1.000000000000000000e+00,1.000000000000000000e+00,1.000000000000000000e+00,1.000000000000000000e+00,1.000000000000000000e+00,1.000000000000000000e+00,1.000000000000000000e+00,1.000000000000000000e+00,1.000000000000000000e+00,1.000000000000000000e+00,1.000000000000000000e+00,1.000000000000000000e+00,1.000000000000000000e+00,1.000000000000000000e+00,1.000000000000000000e+00,1.000000000000000000e+00,1.000000000000000000e+00,1.000000000000000000e+00,1.000000000000000000e+00,1.000000000000000000e+00,1.000000000000000000e+00,1.000000000000000000e+00,1.000000000000000000e+00,1.000000000000000000e+00,1.000000000000000000e+00,1.000000000000000000e+00,1.000000000000000000e+00,1.000000000000000000e+00,1.000000000000000000e+00,1.000000000000000000e+00,3.720000000000000195e+00,9.679999999999999716e+00,5.503999999999999915e+01,1.884399999999999977e+02,3.478399999999999750e+02,3.829200000000000159e+02,3.232799999999999727e+02,3.596000000000000227e+02,2.441200000000000045e+02,9.856000000000000227e+01,5.471999999999999886e+01,4.396000000000000085e+01,2.551999999999999957e+01,1.054399999999999977e+02,1.684799999999999898e+02,1.174000000000000057e+02,2.598000000000000114e+02,1.940000000000000000e+02,2.178799999999999955e+02,2.048000000000000114e+02,1.992800000000000011e+02,1.580399999999999920e+02,1.370399999999999920e+02,9.404000000000000625e+01,8.168000000000000682e+01,5.756000000000000227e+01,2.735999999999999943e+01,7.799999999999999822e+00,1.000000000000000000e+00,1.000000000000000000e+00,1.000000000000000000e+00,1.000000000000000000e+00,1.000000000000000000e+00,1.000000000000000000e+00,1.000000000000000000e+00,1.000000000000000000e+00,1.000000000000000000e+00,1.000000000000000000e+00,1.000000000000000000e+00,1.000000000000000000e+00,2.412000000000000099e+01,5.567999999999999972e+01,9.920000000000000284e+01,1.421999999999999886e+02,1.618400000000000034e+02,8.856000000000000227e+01,7.071999999999999886e+01,1.448400000000000034e+02,9.820000000000000284e+01,1.000000000000000000e+00,1.000000000000000000e+00,1.000000000000000000e+00,1.000000000000000000e+00,1.000000000000000000e+00,1.000000000000000000e+00,1.000000000000000000e+00,1.000000000000000000e+00,1.000000000000000000e+00,1.000000000000000000e+00,1.000000000000000000e+00,1.000000000000000000e+00,1.000000000000000000e+00,1.000000000000000000e+00,1.000000000000000000e+00,1.000000000000000000e+00,1.000000000000000000e+00,1.000000000000000000e+00,1.000000000000000000e+00,1.000000000000000000e+00,1.000000000000000000e+00
1.000000000000000000e+00,1.000000000000000000e+00,1.000000000000000000e+00,1.000000000000000000e+00,1.000000000000000000e+00,1.000000000000000000e+00,1.000000000000000000e+00,1.000000000000000000e+00,1.000000000000000000e+00,1.000000000000000000e+00,1.000000000000000000e+00,1.000000000000000000e+00,1.000000000000000000e+00,1.000000000000000000e+00,1.000000000000000000e+00,1.000000000000000000e+00,1.000000000000000000e+00,1.000000000000000000e+00,1.000000000000000000e+00,1.000000000000000000e+00,1.000000000000000000e+00,1.000000000000000000e+00,1.000000000000000000e+00,1.000000000000000000e+00,1.000000000000000000e+00,1.000000000000000000e+00,1.000000000000000000e+00,1.000000000000000000e+00,1.000000000000000000e+00,1.000000000000000000e+00,3.720000000000000195e+00,6.224000000000000199e+01,1.306800000000000068e+02,3.105600000000000023e+02,4.273999999999999773e+02,4.359599999999999795e+02,4.008000000000000114e+02,4.112799999999999727e+02,2.286800000000000068e+02,9.276000000000000512e+01,8.404000000000000625e+01,7.604000000000000625e+01,1.887199999999999989e+02,9.820000000000000284e+01,6.067999999999999972e+01,1.126400000000000006e+02,1.924799999999999898e+02,2.201599999999999966e+02,2.290399999999999920e+02,2.140000000000000000e+02,2.103199999999999932e+02,2.103199999999999932e+02,2.048799999999999955e+02,1.631999999999999886e+02,1.512800000000000011e+02,8.856000000000000227e+01,8.276000000000000512e+01,5.003999999999999915e+01,1.732000000000000028e+01,1.459999999999999964e+01,1.000000000000000000e+00,1.000000000000000000e+00,1.000000000000000000e+00,1.000000000000000000e+00,1.000000000000000000e+00,1.000000000000000000e+00,1.000000000000000000e+00,1.000000000000000000e+00,1.000000000000000000e+00,1.000000000000000000e+00,3.228000000000000114e+01,4.064000000000000057e+01,7.823999999999999488e+01,1.095199999999999960e+02,1.920399999999999920e+02,1.801599999999999966e+02,1.540399999999999920e+02,2.287199999999999989e+02,1.187999999999999972e+02,1.000000000000000000e+00,1.000000000000000000e+00,1.000000000000000000e+00,1.000000000000000000e+00,1.000000000000000000e+00,1.000000000000000000e+00,1.000000000000000000e+00,1.000000000000000000e+00,1.000000000000000000e+00,1.000000000000000000e+00,1.000000000000000000e+00,1.000000000000000000e+00,1.000000000000000000e+00,1.000000000000000000e+00,1.000000000000000000e+00,1.000000000000000000e+00,1.000000000000000000e+00,1.000000000000000000e+00,1.000000000000000000e+00,1.000000000000000000e+00,1.000000000000000000e+00
1.000000000000000000e+00,1.000000000000000000e+00,1.000000000000000000e+00,1.000000000000000000e+00,1.000000000000000000e+00,1.000000000000000000e+00,1.000000000000000000e+00,1.000000000000000000e+00,1.000000000000000000e+00,1.000000000000000000e+00,1.000000000000000000e+00,1.000000000000000000e+00,1.000000000000000000e+00,1.000000000000000000e+00,1.000000000000000000e+00,1.000000000000000000e+00,1.000000000000000000e+00,1.000000000000000000e+00,1.000000000000000000e+00,1.000000000000000000e+00,1.000000000000000000e+00,1.000000000000000000e+00,1.000000000000000000e+00,1.000000000000000000e+00,1.000000000000000000e+00,1.000000000000000000e+00,1.000000000000000000e+00,1.000000000000000000e+00,6.440000000000000391e+00,1.051999999999999957e+01,2.359999999999999876e+00,7.151999999999999602e+01,2.683600000000000136e+02,4.297200000000000273e+02,1.356799999999999955e+03,7.179600000000000364e+02,4.518000000000000114e+02,3.596000000000000227e+02,3.200000000000000000e+02,2.527599999999999909e+02,1.647199999999999989e+02,1.268400000000000034e+02,1.530000000000000000e+02,8.223999999999999488e+01,1.836800000000000068e+02,2.154399999999999977e+02,1.614399999999999977e+02,1.848000000000000114e+02,2.440800000000000125e+02,2.384399999999999977e+02,2.215200000000000102e+02,2.140000000000000000e+02,2.421999999999999886e+02,2.366399999999999864e+02,2.086399999999999864e+02,1.426800000000000068e+02,1.429600000000000080e+02,9.904000000000000625e+01,3.228000000000000114e+01,1.732000000000000028e+01,1.188000000000000078e+01,1.000000000000000000e+00,1.000000000000000000e+00,1.000000000000000000e+00,1.000000000000000000e+00,1.000000000000000000e+00,1.000000000000000000e+00,1.000000000000000000e+00,1.000000000000000000e+00,1.000000000000000000e+00,3.364000000000000057e+01,5.756000000000000227e+01,8.200000000000000000e+01,1.077999999999999972e+02,1.755999999999999943e+02,2.431599999999999966e+02,3.893999999999999773e+02,5.280800000000000409e+02,4.641600000000000250e+02,2.348000000000000043e+01,1.000000000000000000e+00,1.000000000000000000e+00,1.000000000000000000e+00,1.000000000000000000e+00,1.000000000000000000e+00,1.000000000000000000e+00,1.000000000000000000e+00,1.000000000000000000e+00,1.000000000000000000e+00,1.000000000000000000e+00,1.000000000000000000e+00,1.000000000000000000e+00,1.000000000000000000e+00,1.000000000000000000e+00,1.000000000000000000e+00,1.000000000000000000e+00,1.000000000000000000e+00,1.000000000000000000e+00,1.000000000000000000e+00,1.000000000000000000e+00
1.000000000000000000e+00,1.000000000000000000e+00,1.000000000000000000e+00,1.000000000000000000e+00,1.000000000000000000e+00,1.000000000000000000e+00,1.000000000000000000e+00,1.000000000000000000e+00,1.000000000000000000e+00,1.000000000000000000e+00,1.000000000000000000e+00,1.000000000000000000e+00,1.000000000000000000e+00,1.000000000000000000e+00,1.000000000000000000e+00,1.000000000000000000e+00,1.000000000000000000e+00,1.000000000000000000e+00,1.000000000000000000e+00,1.000000000000000000e+00,1.000000000000000000e+00,1.000000000000000000e+00,1.000000000000000000e+00,1.000000000000000000e+00,1.000000000000000000e+00,1.000000000000000000e+00,1.000000000000000000e+00,6.440000000000000391e+00,1.051999999999999957e+01,7.340000000000000568e+01,8.164000000000000057e+01,1.205199999999999960e+02,2.445999999999999943e+02,4.061999999999999886e+02,2.760920000000000073e+03,1.710799999999999955e+03,5.005600000000000023e+02,4.480799999999999841e+02,4.571200000000000045e+02,3.282400000000000091e+02,2.218400000000000034e+02,1.497199999999999989e+02,1.764000000000000057e+02,1.954799999999999898e+02,2.766800000000000068e+02,2.215999999999999943e+02,1.457599999999999909e+02,1.974399999999999977e+02,2.522400000000000091e+02,2.940000000000000000e+02,2.660400000000000205e+02,2.616399999999999864e+02,2.698000000000000114e+02,2.940000000000000000e+02,2.613600000000000136e+02,2.067599999999999909e+02,1.650399999999999920e+02,1.060799999999999983e+02,8.071999999999999886e+01,7.040000000000000568e+01,6.992000000000000171e+01,2.839999999999999858e+01,2.359999999999999876e+00,1.000000000000000000e+00,3.720000000000000195e+00,1.188000000000000078e+01,1.000000000000000000e+00,1.000000000000000000e+00,1.000000000000000000e+00,1.051999999999999957e+01,3.500000000000000000e+01,5.379999999999999716e+01,8.200000000000000000e+01,1.112399999999999949e+02,1.493199999999999932e+02,2.012400000000000091e+02,3.677599999999999909e+02,1.771119999999999891e+03,1.829480000000000018e+03,2.603999999999999915e+01,1.000000000000000000e+00,1.000000000000000000e+00,1.000000000000000000e+00,1.000000000000000000e+00,1.000000000000000000e+00,1.000000000000000000e+00,1.000000000000000000e+00,1.000000000000000000e+00,1.000000000000000000e+00,1.000000000000000000e+00,1.000000000000000000e+00,1.000000000000000000e+00,1.000000000000000000e+00,1.000000000000000000e+00,1.000000000000000000e+00,1.000000000000000000e+00,1.000000000000000000e+00,1.000000000000000000e+00,1.000000000000000000e+00,1.000000000000000000e+00
1.000000000000000000e+00,1.000000000000000000e+00,1.000000000000000000e+00,1.000000000000000000e+00,1.000000000000000000e+00,1.000000000000000000e+00,1.000000000000000000e+00,1.000000000000000000e+00,1.000000000000000000e+00,1.000000000000000000e+00,1.000000000000000000e+00,1.000000000000000000e+00,1.000000000000000000e+00,1.000000000000000000e+00,1.000000000000000000e+00,1.000000000000000000e+00,1.000000000000000000e+00,1.000000000000000000e+00,1.000000000000000000e+00,1.000000000000000000e+00,1.000000000000000000e+00,1.000000000000000000e+00,1.000000000000000000e+00,1.000000000000000000e+00,1.000000000000000000e+00,1.000000000000000000e+00,5.080000000000000071e+00,4.784000000000000341e+01,1.835999999999999943e+01,4.660000000000000142e+01,7.384000000000000341e+01,1.563199999999999932e+02,3.051200000000000045e+02,4.136000000000000227e+02,8.453999999999999773e+02,5.242000000000000455e+02,6.527599999999999909e+02,1.574319999999999936e+03,5.136799999999999500e+02,3.806399999999999864e+02,2.054799999999999898e+02,2.178000000000000114e+02,2.220000000000000000e+02,3.073999999999999773e+02,3.181600000000000250e+02,2.107599999999999909e+02,1.617199999999999989e+02,2.069600000000000080e+02,2.644800000000000182e+02,3.006000000000000227e+02,2.698000000000000114e+02,2.653999999999999773e+02,2.653999999999999773e+02,2.830000000000000000e+02,2.786000000000000227e+02,2.563199999999999932e+02,1.906800000000000068e+02,1.496800000000000068e+02,1.636800000000000068e+02,1.407199999999999989e+02,1.407199999999999989e+02,1.179200000000000017e+02,2.464000000000000057e+01,1.324000000000000021e+01,9.160000000000000142e+00,9.160000000000000142e+00,1.000000000000000000e+00,1.000000000000000000e+00,1.000000000000000000e+00,2.819999999999999929e+01,3.875999999999999801e+01,6.507999999999999829e+01,9.231999999999999318e+01,1.301599999999999966e+02,1.665200000000000102e+02,1.993600000000000136e+02,3.203600000000000136e+02,1.142079999999999927e+03,1.453680000000000064e+03,3.468000000000000114e+02,1.227999999999999936e+01,1.000000000000000000e+00,1.000000000000000000e+00,1.000000000000000000e+00,1.000000000000000000e+00,1.000000000000000000e+00,1.000000000000000000e+00,1.000000000000000000e+00,1.000000000000000000e+00,1.000000000000000000e+00,1.000000000000000000e+00,1.000000000000000000e+00,1.000000000000000000e+00,1.000000000000000000e+00,1.000000000000000000e+00,1.000000000000000000e+00,1.000000000000000000e+00,1.000000000000000000e+00,1.000000000000000000e+00,1.000000000000000000e+00
1.000000000000000000e+00,1.000000000000000000e+00,1.000000000000000000e+00,1.000000000000000000e+00,1.000000000000000000e+00,1.000000000000000000e+00,1.000000000000000000e+00,1.000000000000000000e+00,1.000000000000000000e+00,1.000000000000000000e+00,1.000000000000000000e+00,1.000000000000000000e+00,1.000000000000000000e+00,1.000000000000000000e+00,1.000000000000000000e+00,1.000000000000000000e+00,1.000000000000000000e+00,1.000000000000000000e+00,1.000000000000000000e+00,1.000000000000000000e+00,1.000000000000000000e+00,1.000000000000000000e+00,1.000000000000000000e+00,1.000000000000000000e+00,1.000000000000000000e+00,1.000000000000000000e+00,7.831999999999999318e+01,1.249200000000000017e+02,4.820000000000000284e+01,2.380000000000000071e+01,5.567999999999999972e+01,1.044800000000000040e+02,1.951200000000000045e+02,3.983199999999999932e+02,3.522799999999999727e+02,3.739599999999999795e+02,5.162799999999999727e+02,1.944160000000000082e+03,1.002799999999999955e+03,4.370400000000000205e+02,3.726399999999999864e+02,2.111999999999999886e+02,3.181600000000000250e+02,3.826399999999999864e+02,3.672799999999999727e+02,2.648000000000000114e+02,1.974399999999999977e+02,2.235999999999999943e+02,2.610000000000000000e+02,2.676000000000000227e+02,2.610000000000000000e+02,2.591200000000000045e+02,2.610000000000000000e+02,2.610000000000000000e+02,2.610000000000000000e+02,2.918000000000000114e+02,2.742400000000000091e+02,2.379199999999999875e+02,2.620000000000000000e+02,2.501999999999999886e+02,2.360800000000000125e+02,2.055200000000000102e+02,8.776000000000000512e+01,4.628000000000000114e+01,2.819999999999999929e+01,3.720000000000000195e+00,1.000000000000000000e+00,1.000000000000000000e+00,2.359999999999999876e+00,3.500000000000000000e+01,5.943999999999999773e+01,8.371999999999999886e+01,1.146800000000000068e+02,1.560800000000000125e+02,2.066800000000000068e+02,2.607200000000000273e+02,3.438799999999999955e+02,2.400360000000000127e+03,2.294199999999999818e+03,2.098599999999999909e+03,8.912000000000000455e+01,1.000000000000000000e+00,1.000000000000000000e+00,1.000000000000000000e+00,1.000000000000000000e+00,1.000000000000000000e+00,1.000000000000000000e+00,1.000000000000000000e+00,1.000000000000000000e+00,1.000000000000000000e+00,1.000000000000000000e+00,1.000000000000000000e+00,1.000000000000000000e+00,1.000000000000000000e+00,1.000000000000000000e+00,1.000000000000000000e+00,1.000000000000000000e+00,1.000000000000000000e+00,1.000000000000000000e+00,1.000000000000000000e+00
1.000000000000000000e+00,1.000000000000000000e+00,1.000000000000000000e+00,1.000000000000000000e+00,1.000000000000000000e+00,1.000000000000000000e+00,1.000000000000000000e+00,1.000000000000000000e+00,1.000000000000000000e+00,1.000000000000000000e+00,1.000000000000000000e+00,1.000000000000000000e+00,1.000000000000000000e+00,1.000000000000000000e+00,1.000000000000000000e+00,1.000000000000000000e+00,1.000000000000000000e+00,1.000000000000000000e+00,1.000000000000000000e+00,1.000000000000000000e+00,1.000000000000000000e+00,1.000000000000000000e+00,1.000000000000000000e+00,1.000000000000000000e+00,1.000000000000000000e+00,1.000000000000000000e+00,1.215600000000000023e+02,1.199599999999999937e+02,6.443999999999999773e+01,5.756000000000000227e+01,1.005999999999999943e+02,9.404000000000000625e+01,1.706399999999999864e+02,2.621999999999999886e+02,2.922799999999999727e+02,3.953600000000000136e+02,4.427599999999999909e+02,9.830000000000000000e+02,7.430800000000000409e+02,3.612400000000000091e+02,2.727599999999999909e+02,2.966000000000000227e+02,4.028000000000000114e+02,4.293999999999999773e+02,3.903999999999999773e+02,2.798799999999999955e+02,2.409600000000000080e+02,2.177599999999999909e+02,2.421999999999999886e+02,2.610000000000000000e+02,2.610000000000000000e+02,2.365600000000000023e+02,2.591200000000000045e+02,2.610000000000000000e+02,2.631999999999999886e+02,2.676000000000000227e+02,2.741999999999999886e+02,2.676000000000000227e+02,3.035199999999999818e+02,3.138000000000000114e+02,3.189200000000000159e+02,2.736000000000000227e+02,1.713199999999999932e+02,8.356000000000000227e+01,4.252000000000000313e+01,1.732000000000000028e+01,1.188000000000000078e+01,1.000000000000000000e+00,1.867999999999999972e+01,3.500000000000000000e+01,7.071999999999999886e+01,1.009200000000000017e+02,1.318799999999999955e+02,1.828400000000000034e+02,2.328000000000000114e+02,3.483199999999999932e+02,4.399200000000000159e+02,1.827480000000000018e+03,3.461000000000000000e+03,2.753000000000000000e+03,9.135999999999999943e+01,1.000000000000000000e+00,1.000000000000000000e+00,1.000000000000000000e+00,1.000000000000000000e+00,1.000000000000000000e+00,1.000000000000000000e+00,1.000000000000000000e+00,1.000000000000000000e+00,1.000000000000000000e+00,1.000000000000000000e+00,1.000000000000000000e+00,1.000000000000000000e+00,1.000000000000000000e+00,1.000000000000000000e+00,1.000000000000000000e+00,1.000000000000000000e+00,1.000000000000000000e+00,1.000000000000000000e+00,1.000000000000000000e+00
1.000000000000000000e+00,1.000000000000000000e+00,1.000000000000000000e+00,1.000000000000000000e+00,1.000000000000000000e+00,1.000000000000000000e+00,1.000000000000000000e+00,1.000000000000000000e+00,1.000000000000000000e+00,1.000000000000000000e+00,1.000000000000000000e+00,1.000000000000000000e+00,1.000000000000000000e+00,1.000000000000000000e+00,1.000000000000000000e+00,1.000000000000000000e+00,1.000000000000000000e+00,1.000000000000000000e+00,1.000000000000000000e+00,1.000000000000000000e+00,1.000000000000000000e+00,1.000000000000000000e+00,1.000000000000000000e+00,1.000000000000000000e+00,1.000000000000000000e+00,1.000000000000000000e+00,3.384000000000000341e+01,8.620000000000000284e+01,9.231999999999999318e+01,7.964000000000000057e+01,8.715999999999999659e+01,9.231999999999999318e+01,1.653199999999999932e+02,1.851599999999999966e+02,1.560800000000000125e+02,2.836800000000000068e+02,3.950799999999999841e+02,4.385600000000000023e+02,4.754399999999999977e+02,3.949200000000000159e+02,3.736800000000000068e+02,4.293999999999999773e+02,4.450000000000000000e+02,4.450000000000000000e+02,3.982400000000000091e+02,3.262400000000000091e+02,2.657200000000000273e+02,2.384399999999999977e+02,2.676000000000000227e+02,2.553600000000000136e+02,2.610000000000000000e+02,2.196399999999999864e+02,2.503600000000000136e+02,2.365600000000000023e+02,2.384399999999999977e+02,2.346800000000000068e+02,2.572400000000000091e+02,2.610000000000000000e+02,2.720000000000000000e+02,3.174399999999999977e+02,2.830000000000000000e+02,2.238000000000000114e+02,1.652800000000000011e+02,8.887999999999999545e+01,5.003999999999999915e+01,3.500000000000000000e+01,3.875999999999999801e+01,4.596000000000000085e+01,3.500000000000000000e+01,3.500000000000000000e+01,7.259999999999999432e+01,1.200799999999999983e+02,1.831999999999999886e+02,2.179600000000000080e+02,2.972799999999999727e+02,4.141999999999999886e+02,8.583999999999999773e+02,3.461000000000000000e+03,3.461000000000000000e+03,2.667480000000000018e+03,7.956000000000000227e+01,1.000000000000000000e+00,1.000000000000000000e+00,1.000000000000000000e+00,1.000000000000000000e+00,1.000000000000000000e+00,1.000000000000000000e+00,1.000000000000000000e+00,1.000000000000000000e+00,1.000000000000000000e+00,1.000000000000000000e+00,1.000000000000000000e+00,1.000000000000000000e+00,1.000000000000000000e+00,1.000000000000000000e+00,1.000000000000000000e+00,1.000000000000000000e+00,1.000000000000000000e+00,1.000000000000000000e+00,1.000000000000000000e+00
1.000000000000000000e+00,1.000000000000000000e+00,1.000000000000000000e+00,1.000000000000000000e+00,1.000000000000000000e+00,1.000000000000000000e+00,1.000000000000000000e+00,1.000000000000000000e+00,1.000000000000000000e+00,1.000000000000000000e+00,1.000000000000000000e+00,1.000000000000000000e+00,1.000000000000000000e+00,1.000000000000000000e+00,1.000000000000000000e+00,1.000000000000000000e+00,1.000000000000000000e+00,1.000000000000000000e+00,1.000000000000000000e+00,1.000000000000000000e+00,1.000000000000000000e+00,1.000000000000000000e+00,1.000000000000000000e+00,1.000000000000000000e+00,1.000000000000000000e+00,3.488000000000000256e+01,1.230400000000000063e+02,1.885999999999999943e+02,1.965200000000000102e+02,1.284399999999999977e+02,1.250000000000000000e+02,9.576000000000000512e+01,1.181200000000000045e+02,1.250000000000000000e+02,1.864000000000000057e+02,2.720799999999999841e+02,3.181999999999999886e+02,3.956800000000000068e+02,4.675199999999999818e+02,3.930000000000000000e+02,3.851999999999999886e+02,3.956800000000000068e+02,4.086000000000000227e+02,4.529200000000000159e+02,4.216000000000000227e+02,3.364800000000000182e+02,2.961999999999999886e+02,2.519199999999999875e+02,2.515999999999999943e+02,2.610000000000000000e+02,2.610000000000000000e+02,2.478400000000000034e+02,2.940000000000000000e+02,2.639599999999999795e+02,2.252800000000000011e+02,2.158799999999999955e+02,2.309199999999999875e+02,2.610000000000000000e+02,2.653999999999999773e+02,3.167200000000000273e+02,3.364800000000000182e+02,2.989200000000000159e+02,2.349199999999999875e+02,1.361599999999999966e+02,9.404000000000000625e+01,7.635999999999999943e+01,5.379999999999999716e+01,7.635999999999999943e+01,4.064000000000000057e+01,3.500000000000000000e+01,7.823999999999999488e+01,1.215600000000000023e+02,2.275600000000000023e+02,2.801999999999999886e+02,3.518799999999999955e+02,2.165639999999999873e+03,1.236160000000000082e+03,3.461000000000000000e+03,3.227639999999999873e+03,2.860519999999999982e+03,1.753199999999999932e+02,2.280000000000000071e+01,1.000000000000000000e+00,1.000000000000000000e+00,1.000000000000000000e+00,1.000000000000000000e+00,1.000000000000000000e+00,1.000000000000000000e+00,1.000000000000000000e+00,1.000000000000000000e+00,1.000000000000000000e+00,1.000000000000000000e+00,1.000000000000000000e+00,1.000000000000000000e+00,1.000000000000000000e+00,1.000000000000000000e+00,1.000000000000000000e+00,1.000000000000000000e+00,1.000000000000000000e+00,1.000000000000000000e+00
1.000000000000000000e+00,1.000000000000000000e+00,1.000000000000000000e+00,1.000000000000000000e+00,1.000000000000000000e+00,1.000000000000000000e+00,1.000000000000000000e+00,1.000000000000000000e+00,1.000000000000000000e+00,1.000000000000000000e+00,1.000000000000000000e+00,1.000000000000000000e+00,1.000000000000000000e+00,1.000000000000000000e+00,1.000000000000000000e+00,1.000000000000000000e+00,1.000000000000000000e+00,1.000000000000000000e+00,1.000000000000000000e+00,1.000000000000000000e+00,1.000000000000000000e+00,1.000000000000000000e+00,1.000000000000000000e+00,1.000000000000000000e+00,1.188000000000000078e+01,8.651999999999999602e+01,1.596399999999999864e+02,2.066399999999999864e+02,2.215200000000000102e+02,1.957199999999999989e+02,2.029600000000000080e+02,1.721599999999999966e+02,1.740399999999999920e+02,1.830800000000000125e+02,1.938000000000000114e+02,2.836800000000000068e+02,3.240400000000000205e+02,4.164399999999999977e+02,4.293999999999999773e+02,3.878000000000000114e+02,3.878000000000000114e+02,4.504399999999999977e+02,4.568799999999999955e+02,4.846000000000000227e+02,4.477200000000000273e+02,3.671999999999999886e+02,3.009599999999999795e+02,2.855199999999999818e+02,2.679200000000000159e+02,2.763999999999999773e+02,2.610000000000000000e+02,2.698000000000000114e+02,3.441600000000000250e+02,2.921600000000000250e+02,2.572400000000000091e+02,2.440800000000000125e+02,2.215200000000000102e+02,2.290399999999999920e+02,2.610000000000000000e+02,3.006000000000000227e+02,3.093999999999999773e+02,2.947200000000000273e+02,2.421999999999999886e+02,1.957199999999999989e+02,1.493199999999999932e+02,1.096400000000000006e+02,8.200000000000000000e+01,8.200000000000000000e+01,7.259999999999999432e+01,7.823999999999999488e+01,9.231999999999999318e+01,1.421999999999999886e+02,2.112800000000000011e+02,3.608000000000000114e+02,4.336800000000000068e+02,2.994280000000000200e+03,2.410880000000000109e+03,1.710799999999999955e+03,5.162799999999999727e+02,1.220319999999999936e+03,1.635920000000000073e+03,3.352000000000000313e+01,1.000000000000000000e+00,1.000000000000000000e+00,1.000000000000000000e+00,1.000000000000000000e+00,1.000000000000000000e+00,1.000000000000000000e+00,1.000000000000000000e+00,1.000000000000000000e+00,1.000000000000000000e+00,1.000000000000000000e+00,1.000000000000000000e+00,1.000000000000000000e+00,1.000000000000000000e+00,1.000000000000000000e+00,1.000000000000000000e+00,1.000000000000000000e+00,1.000000000000000000e+00,1.000000000000000000e+00
1.000000000000000000e+00,1.000000000000000000e+00,1.000000000000000000e+00,1.000000000000000000e+00,1.000000000000000000e+00,1.000000000000000000e+00,1.000000000000000000e+00,1.000000000000000000e+00,1.000000000000000000e+00,1.000000000000000000e+00,1.000000000000000000e+00,1.000000000000000000e+00,1.000000000000000000e+00,1.000000000000000000e+00,1.000000000000000000e+00,1.000000000000000000e+00,1.000000000000000000e+00,1.000000000000000000e+00,1.000000000000000000e+00,1.000000000000000000e+00,1.000000000000000000e+00,1.000000000000000000e+00,1.000000000000000000e+00,2.359999999999999876e+00,3.707999999999999829e+01,8.371999999999999886e+01,1.164000000000000057e+02,1.460000000000000000e+02,1.794000000000000057e+02,1.864000000000000057e+02,1.753600000000000136e+02,1.993600000000000136e+02,2.346800000000000068e+02,2.384399999999999977e+02,2.515999999999999943e+02,3.006000000000000227e+02,3.595199999999999818e+02,4.216000000000000227e+02,3.826000000000000227e+02,3.800000000000000000e+02,3.981999999999999886e+02,4.859599999999999795e+02,4.846000000000000227e+02,5.004399999999999977e+02,4.138000000000000114e+02,3.518399999999999750e+02,3.262400000000000091e+02,3.160000000000000000e+02,2.961999999999999886e+02,3.035199999999999818e+02,2.808000000000000114e+02,3.160000000000000000e+02,3.543999999999999773e+02,3.441600000000000250e+02,2.786000000000000227e+02,2.610000000000000000e+02,2.497199999999999989e+02,2.572400000000000091e+02,2.610000000000000000e+02,2.610000000000000000e+02,2.676000000000000227e+02,3.028000000000000114e+02,2.622799999999999727e+02,2.271599999999999966e+02,2.841600000000000250e+02,2.463199999999999932e+02,1.009200000000000017e+02,9.748000000000000398e+01,8.371999999999999886e+01,8.200000000000000000e+01,1.146800000000000068e+02,1.633199999999999932e+02,2.290800000000000125e+02,3.361600000000000250e+02,1.702880000000000109e+03,3.461000000000000000e+03,3.461000000000000000e+03,2.644239999999999782e+03,7.258799999999999955e+02,4.557599999999999909e+02,7.876399999999999864e+02,3.959200000000000159e+02,6.412000000000000455e+01,6.440000000000000391e+00,1.000000000000000000e+00,1.000000000000000000e+00,1.000000000000000000e+00,1.000000000000000000e+00,1.000000000000000000e+00,1.000000000000000000e+00,1.000000000000000000e+00,1.000000000000000000e+00,1.000000000000000000e+00,1.000000000000000000e+00,1.000000000000000000e+00,1.000000000000000000e+00,1.000000000000000000e+00,1.000000000000000000e+00,1.000000000000000000e+00,1.000000000000000000e+00
1.000000000000000000e+00,1.000000000000000000e+00,1.000000000000000000e+00,1.000000000000000000e+00,1.000000000000000000e+00,1.000000000000000000e+00,1.000000000000000000e+00,1.000000000000000000e+00,1.000000000000000000e+00,1.000000000000000000e+00,1.000000000000000000e+00,1.000000000000000000e+00,1.000000000000000000e+00,1.000000000000000000e+00,1.000000000000000000e+00,1.000000000000000000e+00,1.000000000000000000e+00,1.000000000000000000e+00,1.000000000000000000e+00,1.000000000000000000e+00,1.000000000000000000e+00,3.720000000000000195e+00,1.835999999999999943e+01,4.167999999999999972e+01,6.320000000000000284e+01,1.095199999999999960e+02,1.250000000000000000e+02,1.561999999999999886e+02,1.547199999999999989e+02,1.774399999999999977e+02,2.329199999999999875e+02,1.957199999999999989e+02,1.937599999999999909e+02,2.177599999999999909e+02,2.459600000000000080e+02,2.896000000000000227e+02,3.262400000000000091e+02,3.467200000000000273e+02,3.339200000000000159e+02,3.774399999999999977e+02,3.956000000000000227e+02,3.982400000000000091e+02,4.371999999999999886e+02,4.529200000000000159e+02,3.878399999999999750e+02,3.723199999999999932e+02,3.313600000000000136e+02,3.185600000000000023e+02,3.339200000000000159e+02,3.116000000000000227e+02,2.789200000000000159e+02,2.688799999999999955e+02,3.141600000000000250e+02,3.774399999999999977e+02,3.313600000000000136e+02,2.741999999999999886e+02,2.610000000000000000e+02,2.610000000000000000e+02,2.610000000000000000e+02,2.610000000000000000e+02,2.610000000000000000e+02,2.610000000000000000e+02,2.736000000000000227e+02,3.057200000000000273e+02,3.346399999999999864e+02,2.986000000000000227e+02,2.007199999999999989e+02,1.404799999999999898e+02,1.095199999999999960e+02,9.920000000000000284e+01,1.250000000000000000e+02,1.720399999999999920e+02,2.469199999999999875e+02,3.552799999999999727e+02,1.691000000000000000e+03,3.461000000000000000e+03,3.461000000000000000e+03,3.344320000000000164e+03,1.710799999999999955e+03,3.981999999999999886e+02,3.339200000000000159e+02,3.423600000000000136e+02,1.245199999999999960e+02,4.971999999999999886e+01,2.796000000000000085e+01,1.000000000000000000e+00,1.000000000000000000e+00,1.000000000000000000e+00,1.000000000000000000e+00,1.000000000000000000e+00,1.000000000000000000e+00,1.000000000000000000e+00,1.000000000000000000e+00,1.000000000000000000e+00,1.000000000000000000e+00,1.000000000000000000e+00,1.000000000000000000e+00,1.000000000000000000e+00,1.000000000000000000e+00,1.000000000000000000e+00
1.000000000000000000e+00,1.000000000000000000e+00,1.000000000000000000e+00,1.000000000000000000e+00,1.000000000000000000e+00,1.000000000000000000e+00,1.000000000000000000e+00,1.000000000000000000e+00,1.000000000000000000e+00,1.000000000000000000e+00,1.000000000000000000e+00,1.000000000000000000e+00,1.000000000000000000e+00,1.000000000000000000e+00,1.000000000000000000e+00,1.000000000000000000e+00,1.000000000000000000e+00,2.359999999999999876e+00,1.459999999999999964e+01,3.364000000000000057e+01,5.264000000000000057e+01,1.020000000000000000e+02,1.285600000000000023e+02,1.582800000000000011e+02,1.667599999999999909e+02,1.722800000000000011e+02,1.670000000000000000e+02,1.722800000000000011e+02,2.180800000000000125e+02,2.792400000000000091e+02,2.940000000000000000e+02,3.012799999999999727e+02,2.472400000000000091e+02,2.450399999999999920e+02,2.676000000000000227e+02,2.918000000000000114e+02,3.339200000000000159e+02,3.160000000000000000e+02,3.467599999999999909e+02,4.138000000000000114e+02,4.320000000000000000e+02,4.530400000000000205e+02,4.450000000000000000e+02,4.086000000000000227e+02,3.800000000000000000e+02,4.138000000000000114e+02,4.111999999999999886e+02,3.723600000000000136e+02,3.595600000000000023e+02,3.441600000000000250e+02,3.051999999999999886e+02,3.131999999999999886e+02,3.236800000000000068e+02,4.375600000000000023e+02,4.008000000000000114e+02,3.291600000000000250e+02,2.918000000000000114e+02,2.610000000000000000e+02,3.006000000000000227e+02,2.918000000000000114e+02,2.572400000000000091e+02,2.572400000000000091e+02,2.553600000000000136e+02,3.119599999999999795e+02,3.621600000000000250e+02,3.776800000000000068e+02,2.498799999999999955e+02,1.773199999999999932e+02,1.370399999999999920e+02,1.250000000000000000e+02,1.284399999999999977e+02,1.646800000000000068e+02,2.179199999999999875e+02,2.921600000000000250e+02,3.919200000000000159e+02,1.575680000000000064e+03,3.461000000000000000e+03,3.461000000000000000e+03,2.760920000000000073e+03,5.686000000000000227e+02,3.671999999999999886e+02,3.060799999999999841e+02,2.921200000000000045e+02,1.201200000000000045e+02,1.664000000000000057e+02,7.056000000000000227e+01,3.992000000000000171e+01,1.667999999999999972e+01,1.000000000000000000e+00,1.000000000000000000e+00,1.000000000000000000e+00,1.000000000000000000e+00,1.000000000000000000e+00,1.000000000000000000e+00,1.000000000000000000e+00,1.000000000000000000e+00,1.000000000000000000e+00,1.000000000000000000e+00,1.000000000000000000e+00,1.000000000000000000e+00
1.000000000000000000e+00,1.000000000000000000e+00,1.000000000000000000e+00,1.000000000000000000e+00,1.000000000000000000e+00,1.000000000000000000e+00,1.000000000000000000e+00,1.000000000000000000e+00,1.000000000000000000e+00,1.000000000000000000e+00,5.080000000000000071e+00,1.000000000000000000e+00,1.000000000000000000e+00,1.867999999999999972e+01,1.459999999999999964e+01,6.440000000000000391e+00,2.412000000000000099e+01,4.815999999999999659e+01,8.276000000000000512e+01,7.040000000000000568e+01,1.043599999999999994e+02,1.671200000000000045e+02,2.032400000000000091e+02,2.478799999999999955e+02,2.644800000000000182e+02,2.365600000000000023e+02,2.534799999999999898e+02,2.600799999999999841e+02,2.896000000000000227e+02,3.006000000000000227e+02,3.123199999999999932e+02,3.416000000000000227e+02,3.288000000000000114e+02,3.280400000000000205e+02,3.082799999999999727e+02,3.262400000000000091e+02,3.851999999999999886e+02,3.390799999999999841e+02,3.697599999999999909e+02,4.033999999999999773e+02,3.956000000000000227e+02,4.242799999999999727e+02,4.190000000000000000e+02,3.851999999999999886e+02,3.981999999999999886e+02,4.086000000000000227e+02,4.371999999999999886e+02,4.399200000000000159e+02,4.111999999999999886e+02,4.398000000000000114e+02,4.008000000000000114e+02,3.956000000000000227e+02,3.800000000000000000e+02,4.087200000000000273e+02,4.940000000000000000e+02,3.841200000000000045e+02,3.416399999999999864e+02,2.830000000000000000e+02,2.961999999999999886e+02,2.961999999999999886e+02,2.290399999999999920e+02,2.140000000000000000e+02,2.478400000000000034e+02,2.947200000000000273e+02,3.621200000000000045e+02,4.008000000000000114e+02,3.475600000000000023e+02,2.282800000000000011e+02,1.702400000000000091e+02,1.335999999999999943e+02,1.439199999999999875e+02,1.680000000000000000e+02,1.900800000000000125e+02,2.328000000000000114e+02,3.013199999999999932e+02,3.782400000000000091e+02,1.415559999999999945e+03,2.410880000000000109e+03,1.352839999999999918e+03,3.956800000000000068e+02,3.101200000000000045e+02,3.056000000000000227e+02,2.595600000000000023e+02,2.510399999999999920e+02,2.498400000000000034e+02,3.078000000000000114e+02,7.015999999999999659e+01,1.324000000000000021e+01,1.000000000000000000e+00,1.000000000000000000e+00,1.000000000000000000e+00,1.000000000000000000e+00,1.000000000000000000e+00,1.000000000000000000e+00,1.000000000000000000e+00,1.000000000000000000e+00,1.000000000000000000e+00,1.000000000000000000e+00,1.000000000000000000e+00,1.000000000000000000e+00
1.000000000000000000e+00,1.000000000000000000e+00,1.000000000000000000e+00,1.000000000000000000e+00,1.000000000000000000e+00,1.000000000000000000e+00,1.000000000000000000e+00,1.000000000000000000e+00,1.000000000000000000e+00,1.000000000000000000e+00,9.160000000000000142e+00,2.359999999999999876e+00,4.264000000000000057e+01,8.800000000000000000e+01,9.115999999999999659e+01,5.811999999999999744e+01,8.979999999999999716e+01,1.112399999999999949e+02,1.638400000000000034e+02,1.593199999999999932e+02,1.843199999999999932e+02,2.155999999999999943e+02,2.095999999999999943e+02,2.375999999999999943e+02,2.851999999999999886e+02,2.961999999999999886e+02,3.028000000000000114e+02,2.873999999999999773e+02,3.028000000000000114e+02,3.116000000000000227e+02,3.364800000000000182e+02,3.390400000000000205e+02,3.492799999999999727e+02,3.364800000000000182e+02,3.697599999999999909e+02,3.390400000000000205e+02,3.827200000000000273e+02,4.138000000000000114e+02,4.008000000000000114e+02,4.241999999999999886e+02,4.163999999999999773e+02,3.698000000000000114e+02,3.903999999999999773e+02,3.956000000000000227e+02,3.903999999999999773e+02,4.111999999999999886e+02,4.489599999999999795e+02,4.766800000000000068e+02,4.964800000000000182e+02,4.766800000000000068e+02,5.004399999999999977e+02,4.477200000000000273e+02,4.388000000000000114e+02,4.177599999999999909e+02,4.714800000000000182e+02,5.031600000000000250e+02,4.165600000000000023e+02,3.160000000000000000e+02,3.093999999999999773e+02,2.763999999999999773e+02,2.534799999999999898e+02,2.140000000000000000e+02,2.290399999999999920e+02,2.585199999999999818e+02,3.398000000000000114e+02,4.400400000000000205e+02,4.350799999999999841e+02,3.082400000000000091e+02,2.504799999999999898e+02,1.736399999999999864e+02,1.645600000000000023e+02,1.716800000000000068e+02,1.864000000000000057e+02,2.252800000000000011e+02,2.676000000000000227e+02,3.075600000000000023e+02,3.905199999999999818e+02,4.583600000000000136e+02,4.768000000000000114e+02,3.842799999999999727e+02,2.745199999999999818e+02,2.403199999999999932e+02,2.353600000000000136e+02,3.486800000000000068e+02,2.648000000000000114e+02,6.576799999999999500e+02,6.879600000000000364e+02,2.519999999999999929e+01,5.080000000000000071e+00,1.000000000000000000e+00,1.000000000000000000e+00,1.000000000000000000e+00,1.000000000000000000e+00,1.000000000000000000e+00,1.000000000000000000e+00,1.000000000000000000e+00,1.000000000000000000e+00,1.000000000000000000e+00,1.000000000000000000e+00,1.000000000000000000e+00
1.000000000000000000e+00,1.000000000000000000e+00,1.000000000000000000e+00,1.000000000000000000e+00,1.000000000000000000e+00,1.000000000000000000e+00,1.000000000000000000e+00,1.000000000000000000e+00,1.000000000000000000e+00,1.000000000000000000e+00,1.000000000000000000e+00,2.923999999999999844e+01,1.279599999999999937e+02,2.415600000000000023e+02,2.638000000000000114e+02,2.422400000000000091e+02,2.245600000000000023e+02,1.939600000000000080e+02,2.507199999999999989e+02,2.828399999999999750e+02,2.912799999999999727e+02,3.254800000000000182e+02,3.306000000000000227e+02,2.945600000000000023e+02,2.998399999999999750e+02,2.631999999999999886e+02,3.093999999999999773e+02,3.160000000000000000e+02,3.160000000000000000e+02,3.160000000000000000e+02,3.313600000000000136e+02,3.211200000000000045e+02,3.262400000000000091e+02,3.364800000000000182e+02,3.774399999999999977e+02,3.800000000000000000e+02,4.688799999999999955e+02,4.113199999999999932e+02,3.981999999999999886e+02,4.570000000000000000e+02,3.851999999999999886e+02,3.826800000000000068e+02,4.346000000000000227e+02,4.542799999999999727e+02,4.821200000000000045e+02,4.925199999999999818e+02,5.162799999999999727e+02,5.321200000000000045e+02,5.440000000000000000e+02,5.440000000000000000e+02,5.440000000000000000e+02,5.043999999999999773e+02,5.321200000000000045e+02,4.885600000000000023e+02,4.450000000000000000e+02,4.766800000000000068e+02,4.216000000000000227e+02,3.364800000000000182e+02,3.364800000000000182e+02,2.896000000000000227e+02,2.610000000000000000e+02,2.290399999999999920e+02,2.140000000000000000e+02,2.290399999999999920e+02,2.969200000000000159e+02,4.062400000000000091e+02,3.958399999999999750e+02,3.543999999999999773e+02,3.553600000000000136e+02,2.048000000000000114e+02,2.142400000000000091e+02,2.066399999999999864e+02,2.048000000000000114e+02,2.403199999999999932e+02,2.961999999999999886e+02,3.160000000000000000e+02,3.390799999999999841e+02,3.826000000000000227e+02,3.698399999999999750e+02,4.033999999999999773e+02,3.236399999999999864e+02,2.896000000000000227e+02,2.234000000000000057e+02,2.857599999999999909e+02,3.441600000000000250e+02,5.412400000000000091e+02,7.220000000000000000e+02,1.151599999999999966e+02,5.080000000000000071e+00,1.000000000000000000e+00,1.000000000000000000e+00,1.000000000000000000e+00,1.000000000000000000e+00,1.000000000000000000e+00,1.000000000000000000e+00,1.000000000000000000e+00,1.000000000000000000e+00,1.000000000000000000e+00,1.000000000000000000e+00,1.000000000000000000e+00
1.000000000000000000e+00,1.000000000000000000e+00,1.000000000000000000e+00,1.000000000000000000e+00,1.000000000000000000e+00,1.000000000000000000e+00,1.000000000000000000e+00,8.320000000000000284e+00,1.000000000000000000e+00,2.003999999999999915e+01,4.303999999999999915e+01,9.700000000000000000e+01,2.047199999999999989e+02,3.366399999999999864e+02,5.387999999999999545e+02,4.035199999999999818e+02,4.140400000000000205e+02,3.772799999999999727e+02,3.232400000000000091e+02,3.493199999999999932e+02,4.036800000000000068e+02,4.282799999999999727e+02,4.086000000000000227e+02,3.647200000000000273e+02,3.620799999999999841e+02,3.170799999999999841e+02,3.016800000000000068e+02,3.006000000000000227e+02,3.116000000000000227e+02,3.160000000000000000e+02,3.416000000000000227e+02,3.646399999999999864e+02,3.800000000000000000e+02,3.646399999999999864e+02,3.518399999999999750e+02,3.774399999999999977e+02,4.398000000000000114e+02,4.269200000000000159e+02,4.060000000000000000e+02,4.320000000000000000e+02,3.800000000000000000e+02,3.879200000000000159e+02,4.687599999999999909e+02,4.608399999999999750e+02,5.440000000000000000e+02,8.940399999999999636e+02,1.127400000000000091e+03,1.827480000000000018e+03,2.760920000000000073e+03,2.644239999999999782e+03,2.060840000000000146e+03,1.244079999999999927e+03,1.127400000000000091e+03,8.940399999999999636e+02,6.487999999999999545e+02,4.450000000000000000e+02,4.111999999999999886e+02,3.800000000000000000e+02,3.313600000000000136e+02,3.160000000000000000e+02,2.741999999999999886e+02,2.594399999999999977e+02,2.158799999999999955e+02,2.158799999999999955e+02,2.838399999999999750e+02,3.621200000000000045e+02,3.291600000000000250e+02,3.368799999999999955e+02,3.394399999999999977e+02,3.028000000000000114e+02,2.918000000000000114e+02,2.309199999999999875e+02,2.215200000000000102e+02,2.384399999999999977e+02,2.786000000000000227e+02,2.943199999999999932e+02,2.695199999999999818e+02,3.060400000000000205e+02,2.968399999999999750e+02,3.750400000000000205e+02,3.725199999999999818e+02,2.598399999999999750e+02,2.309199999999999875e+02,2.328000000000000114e+02,3.053600000000000136e+02,3.280799999999999841e+02,2.435200000000000102e+02,2.767200000000000273e+02,2.348000000000000043e+01,3.720000000000000195e+00,6.440000000000000391e+00,1.000000000000000000e+00,1.000000000000000000e+00,1.000000000000000000e+00,1.000000000000000000e+00,1.000000000000000000e+00,1.000000000000000000e+00,1.000000000000000000e+00,1.000000000000000000e+00,1.000000000000000000e+00
1.000000000000000000e+00,1.000000000000000000e+00,1.000000000000000000e+00,1.000000000000000000e+00,1.000000000000000000e+00,1.000000000000000000e+00,2.359999999999999876e+00,8.231999999999999318e+01,1.051999999999999957e+01,3.688000000000000256e+01,8.292000000000000171e+01,1.387599999999999909e+02,2.902799999999999727e+02,1.107599999999999909e+03,2.406920000000000073e+03,2.990320000000000164e+03,2.861760000000000218e+03,9.592400000000000091e+02,4.885600000000000023e+02,4.886800000000000068e+02,5.255599999999999454e+02,5.440000000000000000e+02,4.766800000000000068e+02,4.138000000000000114e+02,4.268000000000000114e+02,4.191200000000000045e+02,3.467599999999999909e+02,2.808000000000000114e+02,3.042400000000000091e+02,3.288000000000000114e+02,3.492799999999999727e+02,3.671999999999999886e+02,3.800000000000000000e+02,3.800000000000000000e+02,3.826000000000000227e+02,4.086800000000000068e+02,4.216000000000000227e+02,4.568799999999999955e+02,4.241999999999999886e+02,4.320000000000000000e+02,4.111999999999999886e+02,3.800799999999999841e+02,4.241999999999999886e+02,5.043999999999999773e+02,1.127400000000000091e+03,3.461000000000000000e+03,3.461000000000000000e+03,3.461000000000000000e+03,3.461000000000000000e+03,3.461000000000000000e+03,3.461000000000000000e+03,3.227639999999999873e+03,1.360759999999999991e+03,2.060840000000000146e+03,5.440000000000000000e+02,5.162799999999999727e+02,4.597200000000000273e+02,3.851999999999999886e+02,3.339200000000000159e+02,2.676000000000000227e+02,2.384399999999999977e+02,2.158799999999999955e+02,2.084799999999999898e+02,2.011200000000000045e+02,2.438400000000000034e+02,2.918000000000000114e+02,2.572400000000000091e+02,2.851999999999999886e+02,2.594399999999999977e+02,2.723199999999999932e+02,2.415999999999999943e+02,2.310399999999999920e+02,1.992800000000000011e+02,2.290399999999999920e+02,2.556800000000000068e+02,2.823999999999999773e+02,2.500399999999999920e+02,2.666800000000000068e+02,2.581999999999999886e+02,3.776800000000000068e+02,3.236800000000000068e+02,2.821600000000000250e+02,2.515999999999999943e+02,2.720000000000000000e+02,3.251600000000000250e+02,2.479199999999999875e+02,1.790800000000000125e+02,2.789200000000000159e+02,7.612000000000000455e+01,1.732000000000000028e+01,1.240000000000000036e+01,1.000000000000000000e+00,1.000000000000000000e+00,1.000000000000000000e+00,1.000000000000000000e+00,1.000000000000000000e+00,1.000000000000000000e+00,1.000000000000000000e+00,1.000000000000000000e+00,1.000000000000000000e+00
1.000000000000000000e+00,1.000000000000000000e+00,1.000000000000000000e+00,1.000000000000000000e+00,1.000000000000000000e+00,1.000000000000000000e+00,2.283999999999999986e+01,8.107999999999999829e+01,4.064000000000000057e+01,7.071999999999999886e+01,9.748000000000000398e+01,1.525200000000000102e+02,2.105600000000000023e+02,4.409599999999999795e+02,1.706839999999999918e+03,2.877599999999999909e+03,3.461000000000000000e+03,3.461000000000000000e+03,3.107000000000000000e+03,9.552799999999999727e+02,4.450000000000000000e+02,5.083600000000000136e+02,5.440000000000000000e+02,4.766800000000000068e+02,5.043999999999999773e+02,4.423999999999999773e+02,4.112400000000000091e+02,3.339200000000000159e+02,3.269599999999999795e+02,3.288000000000000114e+02,3.416000000000000227e+02,3.569599999999999795e+02,3.800000000000000000e+02,3.800000000000000000e+02,4.163999999999999773e+02,4.320000000000000000e+02,4.346000000000000227e+02,4.568799999999999955e+02,4.596000000000000227e+02,4.371999999999999886e+02,3.903999999999999773e+02,3.671999999999999886e+02,4.190000000000000000e+02,4.727200000000000273e+02,1.127400000000000091e+03,2.877599999999999909e+03,3.461000000000000000e+03,3.461000000000000000e+03,3.461000000000000000e+03,3.461000000000000000e+03,3.461000000000000000e+03,3.461000000000000000e+03,3.461000000000000000e+03,3.461000000000000000e+03,1.944160000000000082e+03,6.606799999999999500e+02,7.694400000000000546e+02,4.426399999999999864e+02,3.543999999999999773e+02,3.006000000000000227e+02,2.534799999999999898e+02,2.469199999999999875e+02,1.992800000000000011e+02,1.808799999999999955e+02,1.955999999999999943e+02,2.234000000000000057e+02,2.196399999999999864e+02,2.384799999999999898e+02,2.178000000000000114e+02,2.253600000000000136e+02,1.955999999999999943e+02,1.919600000000000080e+02,2.216800000000000068e+02,2.431599999999999966e+02,2.585199999999999818e+02,2.918000000000000114e+02,2.610000000000000000e+02,2.572400000000000091e+02,2.763999999999999773e+02,3.368799999999999955e+02,3.544399999999999977e+02,3.068000000000000114e+02,3.203600000000000136e+02,3.518399999999999750e+02,3.802400000000000091e+02,3.010000000000000000e+02,1.771999999999999886e+02,2.006800000000000068e+02,1.292400000000000091e+02,6.823999999999999488e+01,8.607999999999999829e+01,2.144000000000000128e+01,1.000000000000000000e+00,1.000000000000000000e+00,1.000000000000000000e+00,1.000000000000000000e+00,1.000000000000000000e+00,1.000000000000000000e+00,1.000000000000000000e+00,1.000000000000000000e+00
1.000000000000000000e+00,1.000000000000000000e+00,1.000000000000000000e+00,1.000000000000000000e+00,1.000000000000000000e+00,1.000000000000000000e+00,7.799999999999999822e+00,9.543999999999999773e+01,8.715999999999999659e+01,1.164000000000000057e+02,1.808799999999999955e+02,2.170800000000000125e+02,2.253600000000000136e+02,2.664800000000000182e+02,3.847599999999999909e+02,1.436599999999999909e+03,2.527559999999999945e+03,3.344320000000000164e+03,3.461000000000000000e+03,3.227639999999999873e+03,1.212400000000000091e+03,4.885600000000000023e+02,5.321200000000000045e+02,7.773600000000000136e+02,5.202400000000000091e+02,4.503199999999999932e+02,4.008000000000000114e+02,4.008000000000000114e+02,3.595199999999999818e+02,3.749200000000000159e+02,3.930000000000000000e+02,4.138000000000000114e+02,3.800000000000000000e+02,3.800000000000000000e+02,4.190000000000000000e+02,4.216000000000000227e+02,4.008000000000000114e+02,4.346000000000000227e+02,4.687599999999999909e+02,4.806399999999999864e+02,4.648000000000000114e+02,4.530400000000000205e+02,4.568799999999999955e+02,5.242000000000000455e+02,5.440000000000000000e+02,2.177519999999999982e+03,3.461000000000000000e+03,3.461000000000000000e+03,3.461000000000000000e+03,3.461000000000000000e+03,3.461000000000000000e+03,3.461000000000000000e+03,3.461000000000000000e+03,3.461000000000000000e+03,3.461000000000000000e+03,2.060840000000000146e+03,7.087999999999999545e+02,3.774399999999999977e+02,3.262400000000000091e+02,2.808000000000000114e+02,2.682400000000000091e+02,2.428400000000000034e+02,2.365600000000000023e+02,1.845600000000000023e+02,1.716800000000000068e+02,1.665200000000000102e+02,1.680000000000000000e+02,1.680000000000000000e+02,2.048000000000000114e+02,1.974399999999999977e+02,1.628400000000000034e+02,1.901200000000000045e+02,2.578799999999999955e+02,2.925199999999999818e+02,2.786000000000000227e+02,2.497199999999999989e+02,2.440800000000000125e+02,2.440800000000000125e+02,2.572400000000000091e+02,3.720000000000000000e+02,4.269200000000000159e+02,3.597200000000000273e+02,3.648000000000000114e+02,3.880799999999999841e+02,2.833199999999999932e+02,3.037200000000000273e+02,1.882400000000000091e+02,1.675600000000000023e+02,1.659199999999999875e+02,1.004399999999999977e+02,8.784000000000000341e+01,2.483999999999999986e+01,1.000000000000000000e+00,1.000000000000000000e+00,1.000000000000000000e+00,1.000000000000000000e+00,1.000000000000000000e+00,1.000000000000000000e+00,1.000000000000000000e+00,1.000000000000000000e+00
1.000000000000000000e+00,1.000000000000000000e+00,1.000000000000000000e+00,1.000000000000000000e+00,1.000000000000000000e+00,1.000000000000000000e+00,7.799999999999999822e+00,5.364000000000000057e+01,1.043599999999999994e+02,1.667599999999999909e+02,2.235200000000000102e+02,3.078399999999999750e+02,4.271200000000000045e+02,3.338399999999999750e+02,3.060799999999999841e+02,3.596800000000000068e+02,1.081359999999999900e+03,2.060840000000000146e+03,3.461000000000000000e+03,3.461000000000000000e+03,1.944160000000000082e+03,1.944160000000000082e+03,1.710799999999999955e+03,2.527559999999999945e+03,5.440000000000000000e+02,4.608399999999999750e+02,4.086000000000000227e+02,3.800000000000000000e+02,3.903999999999999773e+02,4.008000000000000114e+02,4.190000000000000000e+02,4.450000000000000000e+02,4.241999999999999886e+02,4.216000000000000227e+02,4.241999999999999886e+02,4.268000000000000114e+02,3.956000000000000227e+02,4.163999999999999773e+02,4.687599999999999909e+02,5.360800000000000409e+02,4.766800000000000068e+02,4.504399999999999977e+02,5.281599999999999682e+02,2.060840000000000146e+03,2.760920000000000073e+03,3.461000000000000000e+03,3.461000000000000000e+03,3.461000000000000000e+03,3.461000000000000000e+03,3.461000000000000000e+03,3.461000000000000000e+03,3.461000000000000000e+03,3.461000000000000000e+03,3.461000000000000000e+03,3.461000000000000000e+03,2.519639999999999873e+03,6.839199999999999591e+02,3.569599999999999795e+02,3.006000000000000227e+02,2.497199999999999989e+02,2.196399999999999864e+02,1.938000000000000114e+02,1.937599999999999909e+02,1.631999999999999886e+02,1.630800000000000125e+02,1.667599999999999909e+02,1.387599999999999909e+02,1.680000000000000000e+02,1.771999999999999886e+02,1.473600000000000136e+02,1.508000000000000114e+02,2.197199999999999989e+02,2.459600000000000080e+02,2.616399999999999864e+02,2.578799999999999955e+02,2.158799999999999955e+02,2.215200000000000102e+02,2.660400000000000205e+02,2.851999999999999886e+02,3.708000000000000114e+02,4.151600000000000250e+02,3.878799999999999955e+02,3.972799999999999727e+02,1.372759999999999991e+03,2.682400000000000091e+02,2.140800000000000125e+02,1.828000000000000114e+02,1.667599999999999909e+02,1.428400000000000034e+02,1.302400000000000091e+02,8.228000000000000114e+01,2.139999999999999858e+01,3.720000000000000195e+00,1.000000000000000000e+00,1.000000000000000000e+00,1.000000000000000000e+00,1.000000000000000000e+00,1.000000000000000000e+00,1.000000000000000000e+00,1.000000000000000000e+00
1.000000000000000000e+00,1.000000000000000000e+00,1.000000000000000000e+00,1.000000000000000000e+00,1.000000000000000000e+00,1.000000000000000000e+00,2.380000000000000071e+01,3.979999999999999716e+01,1.009200000000000017e+02,2.104399999999999977e+02,2.644800000000000182e+02,3.313600000000000136e+02,4.060799999999999841e+02,4.557599999999999909e+02,4.599599999999999795e+02,3.958799999999999955e+02,4.074399999999999977e+02,9.988400000000000318e+02,1.944160000000000082e+03,3.227639999999999873e+03,3.461000000000000000e+03,3.461000000000000000e+03,3.344320000000000164e+03,1.594119999999999891e+03,7.773600000000000136e+02,5.202400000000000091e+02,4.542799999999999727e+02,3.956000000000000227e+02,4.086000000000000227e+02,4.371999999999999886e+02,4.450000000000000000e+02,4.450000000000000000e+02,4.450000000000000000e+02,4.450000000000000000e+02,4.268000000000000114e+02,3.930000000000000000e+02,4.991999999999999886e+02,4.952400000000000091e+02,4.635600000000000023e+02,5.281599999999999682e+02,5.202400000000000091e+02,5.150399999999999636e+02,1.244079999999999927e+03,1.360759999999999991e+03,3.461000000000000000e+03,3.461000000000000000e+03,3.461000000000000000e+03,3.461000000000000000e+03,3.461000000000000000e+03,3.461000000000000000e+03,3.461000000000000000e+03,3.461000000000000000e+03,3.110960000000000036e+03,1.827480000000000018e+03,1.078640000000000100e+03,5.776399999999999864e+02,3.750000000000000000e+02,3.167200000000000273e+02,2.644800000000000182e+02,2.158799999999999955e+02,1.827199999999999989e+02,1.662800000000000011e+02,1.421999999999999886e+02,1.267199999999999989e+02,1.421999999999999886e+02,1.490800000000000125e+02,1.250000000000000000e+02,1.662800000000000011e+02,1.267199999999999989e+02,1.318799999999999955e+02,1.883600000000000136e+02,2.086399999999999864e+02,2.465999999999999943e+02,2.371999999999999886e+02,2.196800000000000068e+02,2.196399999999999864e+02,2.572400000000000091e+02,2.808000000000000114e+02,2.918000000000000114e+02,3.441600000000000250e+02,4.374399999999999977e+02,4.504399999999999977e+02,4.543999999999999773e+02,4.190000000000000000e+02,2.704800000000000182e+02,2.252800000000000011e+02,2.583199999999999932e+02,6.858400000000000318e+02,1.465999999999999943e+02,1.607199999999999989e+02,2.348400000000000034e+02,9.231999999999999318e+01,2.464000000000000057e+01,1.000000000000000000e+00,1.000000000000000000e+00,1.000000000000000000e+00,1.000000000000000000e+00,1.000000000000000000e+00,1.000000000000000000e+00,1.000000000000000000e+00
1.000000000000000000e+00,1.000000000000000000e+00,1.000000000000000000e+00,1.000000000000000000e+00,1.000000000000000000e+00,2.359999999999999876e+00,1.919999999999999929e+01,4.167999999999999972e+01,1.164000000000000057e+02,2.324000000000000057e+02,2.657200000000000273e+02,3.057200000000000273e+02,3.748799999999999955e+02,4.255600000000000023e+02,5.004399999999999977e+02,5.216000000000000227e+02,4.623199999999999932e+02,4.806399999999999864e+02,6.527599999999999909e+02,2.527559999999999945e+03,3.461000000000000000e+03,3.461000000000000000e+03,3.461000000000000000e+03,2.527559999999999945e+03,1.827480000000000018e+03,1.010720000000000027e+03,5.440000000000000000e+02,4.649200000000000159e+02,4.346000000000000227e+02,4.437599999999999909e+02,4.450000000000000000e+02,4.450000000000000000e+02,4.450000000000000000e+02,4.489599999999999795e+02,4.450000000000000000e+02,4.111999999999999886e+02,5.360800000000000409e+02,5.043999999999999773e+02,5.083600000000000136e+02,5.440000000000000000e+02,8.940399999999999636e+02,5.360800000000000409e+02,5.440000000000000000e+02,5.440000000000000000e+02,1.944160000000000082e+03,3.227639999999999873e+03,3.461000000000000000e+03,3.461000000000000000e+03,3.461000000000000000e+03,3.461000000000000000e+03,2.877599999999999909e+03,2.877599999999999909e+03,1.827480000000000018e+03,6.369199999999999591e+02,4.168399999999999750e+02,3.445199999999999818e+02,2.969200000000000159e+02,2.616399999999999864e+02,2.252800000000000011e+02,1.827199999999999989e+02,1.662800000000000011e+02,1.318799999999999955e+02,1.164000000000000057e+02,1.112399999999999949e+02,1.112399999999999949e+02,1.267199999999999989e+02,1.250000000000000000e+02,1.421999999999999886e+02,1.250000000000000000e+02,1.335999999999999943e+02,2.029600000000000080e+02,2.122400000000000091e+02,2.271599999999999966e+02,2.215999999999999943e+02,1.845600000000000023e+02,2.271599999999999966e+02,2.440800000000000125e+02,2.610000000000000000e+02,2.918000000000000114e+02,3.543999999999999773e+02,4.900400000000000205e+02,5.202400000000000091e+02,5.202400000000000091e+02,3.931200000000000045e+02,3.519599999999999795e+02,3.040400000000000205e+02,2.481599999999999966e+02,3.364800000000000182e+02,1.761999999999999886e+02,1.497599999999999909e+02,2.508799999999999955e+02,3.968799999999999955e+02,1.308000000000000114e+02,5.011999999999999744e+01,1.000000000000000000e+00,1.000000000000000000e+00,1.000000000000000000e+00,1.000000000000000000e+00,1.000000000000000000e+00,1.000000000000000000e+00
1.000000000000000000e+00,1.000000000000000000e+00,1.000000000000000000e+00,1.000000000000000000e+00,1.000000000000000000e+00,2.359999999999999876e+00,2.003999999999999915e+01,5.003999999999999915e+01,9.748000000000000398e+01,2.400000000000000000e+02,2.419199999999999875e+02,2.877200000000000273e+02,3.416000000000000227e+02,4.163999999999999773e+02,4.885600000000000023e+02,7.773600000000000136e+02,2.177519999999999982e+03,1.477440000000000055e+03,2.877599999999999909e+03,3.461000000000000000e+03,3.461000000000000000e+03,3.461000000000000000e+03,3.461000000000000000e+03,2.994280000000000200e+03,5.440000000000000000e+02,5.440000000000000000e+02,5.440000000000000000e+02,4.846000000000000227e+02,4.727200000000000273e+02,5.281599999999999682e+02,4.727200000000000273e+02,4.568799999999999955e+02,4.608399999999999750e+02,5.004399999999999977e+02,4.727200000000000273e+02,4.596000000000000227e+02,5.321200000000000045e+02,4.766800000000000068e+02,5.202400000000000091e+02,5.440000000000000000e+02,1.010720000000000027e+03,1.244079999999999927e+03,1.710799999999999955e+03,1.360759999999999991e+03,5.440000000000000000e+02,5.440000000000000000e+02,1.010720000000000027e+03,2.060840000000000146e+03,2.877599999999999909e+03,1.477440000000000055e+03,5.400399999999999636e+02,4.626800000000000068e+02,4.570400000000000205e+02,4.143999999999999773e+02,3.368399999999999750e+02,2.729599999999999795e+02,2.384399999999999977e+02,2.252800000000000011e+02,2.084799999999999898e+02,1.716800000000000068e+02,1.335999999999999943e+02,1.250000000000000000e+02,1.009200000000000017e+02,8.200000000000000000e+01,8.887999999999999545e+01,1.077999999999999972e+02,1.215600000000000023e+02,1.232800000000000011e+02,1.146800000000000068e+02,1.576800000000000068e+02,1.736399999999999864e+02,2.104799999999999898e+02,2.140000000000000000e+02,1.937599999999999909e+02,2.397199999999999989e+02,2.140000000000000000e+02,2.547599999999999909e+02,3.071999999999999886e+02,3.093999999999999773e+02,3.467200000000000273e+02,4.598399999999999750e+02,1.477440000000000055e+03,1.432640000000000100e+03,6.735199999999999818e+02,1.777480000000000018e+03,8.543200000000000500e+02,2.767200000000000273e+02,2.931600000000000250e+02,1.650800000000000125e+02,1.800800000000000125e+02,3.236000000000000227e+02,6.972000000000000455e+02,3.304399999999999977e+02,1.021599999999999966e+02,2.107999999999999829e+01,2.359999999999999876e+00,5.080000000000000071e+00,1.000000000000000000e+00,1.000000000000000000e+00,1.000000000000000000e+00
1.000000000000000000e+00,1.000000000000000000e+00,1.000000000000000000e+00,1.000000000000000000e+00,1.000000000000000000e+00,7.799999999999999822e+00,1.188000000000000078e+01,5.003999999999999915e+01,9.576000000000000512e+01,1.754399999999999977e+02,1.960399999999999920e+02,2.515999999999999943e+02,3.467200000000000273e+02,4.008000000000000114e+02,4.464800000000000182e+02,6.012799999999999727e+02,5.004399999999999977e+02,6.606799999999999500e+02,3.110960000000000036e+03,2.527559999999999945e+03,3.461000000000000000e+03,3.461000000000000000e+03,3.461000000000000000e+03,2.994280000000000200e+03,1.477440000000000055e+03,1.244079999999999927e+03,5.440000000000000000e+02,5.202400000000000091e+02,4.925199999999999818e+02,5.043999999999999773e+02,4.846000000000000227e+02,4.806399999999999864e+02,5.360800000000000409e+02,5.123200000000000500e+02,4.727200000000000273e+02,5.043999999999999773e+02,5.321200000000000045e+02,4.806399999999999864e+02,5.202400000000000091e+02,1.827480000000000018e+03,3.110960000000000036e+03,3.461000000000000000e+03,3.461000000000000000e+03,3.344320000000000164e+03,1.710799999999999955e+03,5.440000000000000000e+02,5.440000000000000000e+02,5.440000000000000000e+02,8.940399999999999636e+02,1.127400000000000091e+03,7.773600000000000136e+02,4.322799999999999727e+02,3.707599999999999909e+02,3.530000000000000000e+02,3.043600000000000136e+02,2.679599999999999795e+02,2.158799999999999955e+02,1.849199999999999875e+02,1.649199999999999875e+02,1.594000000000000057e+02,1.250000000000000000e+02,1.026400000000000006e+02,8.200000000000000000e+01,8.200000000000000000e+01,9.748000000000000398e+01,1.060799999999999983e+02,8.371999999999999886e+01,8.887999999999999545e+01,1.095199999999999960e+02,1.370399999999999920e+02,1.633199999999999932e+02,2.141999999999999886e+02,1.955999999999999943e+02,1.716800000000000068e+02,2.134799999999999898e+02,2.278000000000000114e+02,3.393999999999999773e+02,3.826399999999999864e+02,3.467200000000000273e+02,3.931999999999999886e+02,4.463600000000000136e+02,8.702799999999999727e+02,2.877599999999999909e+03,3.110960000000000036e+03,3.461000000000000000e+03,1.628079999999999927e+03,3.452400000000000091e+02,4.283600000000000136e+02,3.440799999999999841e+02,2.267199999999999989e+02,3.584800000000000182e+02,3.648399999999999750e+02,3.582799999999999727e+02,1.933199999999999932e+02,7.040000000000000568e+01,1.051999999999999957e+01,2.880000000000000071e+01,1.072000000000000064e+01,1.000000000000000000e+00,1.000000000000000000e+00
1.000000000000000000e+00,1.000000000000000000e+00,1.000000000000000000e+00,1.000000000000000000e+00,1.000000000000000000e+00,5.080000000000000071e+00,2.359999999999999876e+00,3.603999999999999915e+01,8.684000000000000341e+01,1.667599999999999909e+02,2.328400000000000034e+02,2.578799999999999955e+02,3.518399999999999750e+02,4.111999999999999886e+02,4.530400000000000205e+02,5.321200000000000045e+02,5.400399999999999636e+02,7.773600000000000136e+02,7.773600000000000136e+02,1.944160000000000082e+03,3.461000000000000000e+03,3.110960000000000036e+03,3.344320000000000164e+03,3.461000000000000000e+03,3.461000000000000000e+03,1.477440000000000055e+03,5.440000000000000000e+02,5.242000000000000455e+02,5.242000000000000455e+02,5.440000000000000000e+02,5.440000000000000000e+02,4.964800000000000182e+02,5.321200000000000045e+02,4.529200000000000159e+02,4.489599999999999795e+02,5.400399999999999636e+02,5.360800000000000409e+02,1.123440000000000055e+03,2.177519999999999982e+03,2.060840000000000146e+03,3.461000000000000000e+03,3.461000000000000000e+03,3.461000000000000000e+03,3.461000000000000000e+03,3.461000000000000000e+03,3.110960000000000036e+03,1.244079999999999927e+03,5.440000000000000000e+02,5.440000000000000000e+02,5.440000000000000000e+02,4.885600000000000023e+02,4.489599999999999795e+02,4.216000000000000227e+02,3.441600000000000250e+02,3.243999999999999773e+02,2.350000000000000000e+02,1.827199999999999989e+02,1.680000000000000000e+02,1.456399999999999864e+02,1.267199999999999989e+02,9.576000000000000512e+01,8.200000000000000000e+01,8.200000000000000000e+01,8.200000000000000000e+01,9.748000000000000398e+01,9.059999999999999432e+01,8.200000000000000000e+01,8.200000000000000000e+01,8.887999999999999545e+01,1.215600000000000023e+02,1.648000000000000114e+02,1.563199999999999932e+02,1.474799999999999898e+02,1.662800000000000011e+02,2.168000000000000114e+02,2.626000000000000227e+02,3.189200000000000159e+02,3.467200000000000273e+02,3.698399999999999750e+02,4.163999999999999773e+02,4.190000000000000000e+02,4.727200000000000273e+02,1.002799999999999955e+03,2.644239999999999782e+03,3.344320000000000164e+03,2.177519999999999982e+03,6.251599999999999682e+02,9.515599999999999454e+02,3.133999999999999773e+02,2.869200000000000159e+02,3.883999999999999773e+02,3.201600000000000250e+02,2.734399999999999977e+02,1.774000000000000057e+02,1.341999999999999886e+02,4.220000000000000284e+01,4.567999999999999972e+01,2.359999999999999876e+00,1.000000000000000000e+00,1.000000000000000000e+00
1.000000000000000000e+00,1.000000000000000000e+00,1.000000000000000000e+00,1.000000000000000000e+00,1.000000000000000000e+00,2.023999999999999844e+01,2.380000000000000071e+01,1.596000000000000085e+01,7.007999999999999829e+01,1.684799999999999898e+02,2.384399999999999977e+02,3.093999999999999773e+02,3.620799999999999841e+02,4.008000000000000114e+02,4.320000000000000000e+02,4.529200000000000159e+02,4.925199999999999818e+02,7.773600000000000136e+02,2.294199999999999818e+03,3.461000000000000000e+03,3.110960000000000036e+03,2.877599999999999909e+03,2.760920000000000073e+03,2.410880000000000109e+03,1.710799999999999955e+03,5.440000000000000000e+02,5.440000000000000000e+02,5.440000000000000000e+02,5.281599999999999682e+02,5.440000000000000000e+02,5.440000000000000000e+02,5.162799999999999727e+02,4.687599999999999909e+02,4.727200000000000273e+02,5.043999999999999773e+02,5.440000000000000000e+02,6.606799999999999500e+02,6.606799999999999500e+02,6.606799999999999500e+02,2.177519999999999982e+03,3.461000000000000000e+03,3.461000000000000000e+03,3.461000000000000000e+03,3.461000000000000000e+03,3.461000000000000000e+03,3.461000000000000000e+03,3.461000000000000000e+03,3.344320000000000164e+03,2.644239999999999782e+03,1.710799999999999955e+03,1.127400000000000091e+03,5.440000000000000000e+02,4.938799999999999955e+02,3.750400000000000205e+02,2.770400000000000205e+02,2.178400000000000034e+02,1.700800000000000125e+02,1.301599999999999966e+02,1.250000000000000000e+02,1.026400000000000006e+02,8.200000000000000000e+01,8.200000000000000000e+01,6.507999999999999829e+01,7.823999999999999488e+01,8.200000000000000000e+01,8.200000000000000000e+01,8.543999999999999773e+01,8.543999999999999773e+01,1.198400000000000034e+02,1.423199999999999932e+02,1.456399999999999864e+02,1.284399999999999977e+02,1.370399999999999920e+02,1.680000000000000000e+02,2.215200000000000102e+02,2.638399999999999750e+02,2.786000000000000227e+02,3.093999999999999773e+02,3.852400000000000091e+02,3.826000000000000227e+02,3.903999999999999773e+02,4.060000000000000000e+02,6.092000000000000455e+02,2.527559999999999945e+03,5.281599999999999682e+02,1.944160000000000082e+03,4.806399999999999864e+02,3.636399999999999864e+02,2.581999999999999886e+02,2.799200000000000159e+02,3.654800000000000182e+02,3.195199999999999818e+02,2.430800000000000125e+02,2.706000000000000227e+02,2.099199999999999875e+02,7.964000000000000057e+01,2.839999999999999858e+01,1.000000000000000000e+00,1.000000000000000000e+00,1.000000000000000000e+00
1.000000000000000000e+00,1.000000000000000000e+00,1.000000000000000000e+00,1.000000000000000000e+00,1.000000000000000000e+00,1.732000000000000028e+01,2.412000000000000099e+01,2.412000000000000099e+01,7.556000000000000227e+01,1.864000000000000057e+02,2.547599999999999909e+02,3.160000000000000000e+02,3.748799999999999955e+02,3.852400000000000091e+02,4.111999999999999886e+02,4.727200000000000273e+02,4.727200000000000273e+02,5.440000000000000000e+02,8.940399999999999636e+02,3.461000000000000000e+03,2.994280000000000200e+03,3.461000000000000000e+03,3.110960000000000036e+03,1.710799999999999955e+03,5.440000000000000000e+02,5.440000000000000000e+02,4.766800000000000068e+02,5.123200000000000500e+02,5.360800000000000409e+02,5.440000000000000000e+02,5.043999999999999773e+02,4.648000000000000114e+02,4.806399999999999864e+02,5.202400000000000091e+02,5.440000000000000000e+02,5.202400000000000091e+02,5.360800000000000409e+02,5.281599999999999682e+02,5.360800000000000409e+02,1.360759999999999991e+03,2.644239999999999782e+03,3.110960000000000036e+03,3.461000000000000000e+03,3.461000000000000000e+03,3.461000000000000000e+03,3.461000000000000000e+03,3.461000000000000000e+03,3.461000000000000000e+03,3.461000000000000000e+03,3.461000000000000000e+03,1.594119999999999891e+03,7.272400000000000091e+02,4.505600000000000023e+02,3.371999999999999886e+02,2.710799999999999841e+02,2.272400000000000091e+02,1.758799999999999955e+02,1.198400000000000034e+02,9.576000000000000512e+01,8.200000000000000000e+01,8.200000000000000000e+01,4.439999999999999858e+01,3.500000000000000000e+01,3.875999999999999801e+01,5.379999999999999716e+01,7.071999999999999886e+01,8.200000000000000000e+01,9.404000000000000625e+01,1.425600000000000023e+02,1.421999999999999886e+02,1.250000000000000000e+02,1.318799999999999955e+02,1.957599999999999909e+02,1.845999999999999943e+02,1.900800000000000125e+02,2.350000000000000000e+02,2.660400000000000205e+02,3.050000000000000000e+02,3.723199999999999932e+02,3.569599999999999795e+02,3.467200000000000273e+02,4.034399999999999977e+02,4.925199999999999818e+02,1.360759999999999991e+03,4.859599999999999795e+02,9.830000000000000000e+02,4.241999999999999886e+02,3.740000000000000000e+02,3.467599999999999909e+02,3.449200000000000159e+02,3.826800000000000068e+02,4.293999999999999773e+02,4.008000000000000114e+02,3.829200000000000159e+02,3.220000000000000000e+02,1.564399999999999977e+02,4.347999999999999687e+01,1.000000000000000000e+00,1.000000000000000000e+00,1.000000000000000000e+00
1.000000000000000000e+00,1.000000000000000000e+00,1.000000000000000000e+00,1.000000000000000000e+00,1.000000000000000000e+00,3.720000000000000195e+00,2.412000000000000099e+01,6.120000000000000284e+01,1.198400000000000034e+02,2.048799999999999955e+02,2.811200000000000045e+02,3.160000000000000000e+02,3.620799999999999841e+02,3.904800000000000182e+02,4.635600000000000023e+02,5.162799999999999727e+02,5.202400000000000091e+02,5.440000000000000000e+02,2.177519999999999982e+03,3.461000000000000000e+03,2.527559999999999945e+03,1.594119999999999891e+03,1.827480000000000018e+03,1.244079999999999927e+03,7.773600000000000136e+02,5.440000000000000000e+02,5.440000000000000000e+02,5.321200000000000045e+02,5.123200000000000500e+02,5.281599999999999682e+02,4.687599999999999909e+02,5.004399999999999977e+02,5.321200000000000045e+02,5.043999999999999773e+02,5.162799999999999727e+02,4.687599999999999909e+02,5.400399999999999636e+02,4.568799999999999955e+02,4.648000000000000114e+02,7.615199999999999818e+02,7.615199999999999818e+02,7.773600000000000136e+02,2.294199999999999818e+03,3.461000000000000000e+03,3.461000000000000000e+03,3.227639999999999873e+03,3.461000000000000000e+03,3.461000000000000000e+03,2.994280000000000200e+03,3.344320000000000164e+03,5.440000000000000000e+02,4.346000000000000227e+02,3.621600000000000250e+02,3.079200000000000159e+02,2.754800000000000182e+02,2.122800000000000011e+02,1.685999999999999943e+02,1.043599999999999994e+02,8.200000000000000000e+01,8.200000000000000000e+01,5.756000000000000227e+01,3.500000000000000000e+01,3.500000000000000000e+01,3.500000000000000000e+01,3.500000000000000000e+01,3.875999999999999801e+01,8.200000000000000000e+01,9.404000000000000625e+01,1.475999999999999943e+02,1.301599999999999966e+02,1.353199999999999932e+02,1.301599999999999966e+02,1.795999999999999943e+02,2.141599999999999966e+02,1.735200000000000102e+02,2.462800000000000011e+02,2.331200000000000045e+02,2.940000000000000000e+02,3.167200000000000273e+02,3.339200000000000159e+02,3.160000000000000000e+02,3.776000000000000227e+02,4.385600000000000023e+02,4.650400000000000205e+02,4.217200000000000273e+02,4.163999999999999773e+02,3.570000000000000000e+02,3.790400000000000205e+02,3.672400000000000091e+02,3.775600000000000023e+02,3.748799999999999955e+02,3.827599999999999909e+02,9.514400000000000546e+02,4.859599999999999795e+02,5.477599999999999909e+02,5.444800000000000182e+02,5.932000000000000028e+01,1.000000000000000000e+00,1.000000000000000000e+00,1.000000000000000000e+00
1.000000000000000000e+00,1.000000000000000000e+00,1.000000000000000000e+00,1.000000000000000000e+00,1.000000000000000000e+00,1.000000000000000000e+00,1.516000000000000014e+01,1.060799999999999983e+02,1.650399999999999920e+02,2.365999999999999943e+02,2.983999999999999773e+02,3.313600000000000136e+02,3.288000000000000114e+02,3.982400000000000091e+02,4.806399999999999864e+02,5.440000000000000000e+02,5.440000000000000000e+02,5.360800000000000409e+02,5.440000000000000000e+02,2.410880000000000109e+03,2.177519999999999982e+03,1.710799999999999955e+03,6.606799999999999500e+02,5.440000000000000000e+02,1.944160000000000082e+03,2.294199999999999818e+03,5.440000000000000000e+02,5.440000000000000000e+02,5.043999999999999773e+02,5.440000000000000000e+02,5.083600000000000136e+02,4.964800000000000182e+02,5.281599999999999682e+02,4.727200000000000273e+02,4.978399999999999750e+02,5.043999999999999773e+02,5.281599999999999682e+02,5.242000000000000455e+02,4.321200000000000045e+02,5.083600000000000136e+02,4.964800000000000182e+02,4.952400000000000091e+02,1.710799999999999955e+03,3.461000000000000000e+03,2.177519999999999982e+03,6.606799999999999500e+02,1.594119999999999891e+03,1.710799999999999955e+03,5.440000000000000000e+02,1.360759999999999991e+03,5.242000000000000455e+02,4.386800000000000068e+02,3.569599999999999795e+02,2.899599999999999795e+02,2.271599999999999966e+02,1.827199999999999989e+02,1.508000000000000114e+02,8.887999999999999545e+01,8.200000000000000000e+01,5.943999999999999773e+01,3.500000000000000000e+01,3.500000000000000000e+01,3.500000000000000000e+01,3.688000000000000256e+01,4.439999999999999858e+01,6.132000000000000028e+01,5.756000000000000227e+01,6.507999999999999829e+01,8.200000000000000000e+01,1.250000000000000000e+02,1.387599999999999909e+02,1.318799999999999955e+02,1.668799999999999955e+02,1.974399999999999977e+02,2.066399999999999864e+02,2.515999999999999943e+02,2.140000000000000000e+02,2.657200000000000273e+02,2.786000000000000227e+02,2.873999999999999773e+02,2.896000000000000227e+02,3.390400000000000205e+02,3.671999999999999886e+02,3.698000000000000114e+02,3.749200000000000159e+02,3.671999999999999886e+02,3.492799999999999727e+02,3.006000000000000227e+02,3.116000000000000227e+02,3.160000000000000000e+02,3.492799999999999727e+02,3.748799999999999955e+02,8.019600000000000364e+02,1.944160000000000082e+03,3.202799999999999727e+02,2.578799999999999955e+02,4.328000000000000114e+01,5.599999999999999645e+00,1.000000000000000000e+00,1.000000000000000000e+00
